# .PCD v0.7 - Point Cloud Data file format
VERSION 0.7
FIELDS x y z rgb
SIZE 4 4 4 4
TYPE F F F U
COUNT 1 1 1 1
WIDTH 699
HEIGHT 1
VIEWPOINT 0 0 0 1 0 0 0
POINTS 699
DATA ascii
-0.15466904131562353 -0.10470565391624342 0.48618247772905687 1382168
-0.13792153380131733 -0.08808313936091583 0.5317266663762574 1381653
-0.12889816361901474 0.04589866615966365 0.6078065523154488 789515
-0.12471087663072389 0.14029739216983472 0.5808909606446357 328965
-0.1207893514744236 0.15762747776252972 0.5940781318484487 329478
-0.12288183424073029 0.19588561744906485 0.5815835910890101 131841
-0.15491996221237647 -0.10871658421590835 0.4627009050094544 1119252
-0.12870654740276244 -0.11223789408331974 0.5205445682412662 1513239
-0.10332087805727852 0.16713144458162343 0.5902353730350771 658186
-0.13314818142214957 -0.13962585561350993 0.4635968218893052 1316631
-0.12457007841969858 -0.10687518786268324 0.5480461136935932 1382424
-0.10653487443053145 -0.1123152543863335 0.5609431277054171 1251096
-0.09768230693550839 0.09763402538930421 0.5973939221839641 1381909
-0.09052738033260077 0.1414366168529857 0.59650092595029 1315347
-0.12851856128334793 -0.16444996762911757 0.4606567163497337 1447960
-0.12902546785358027 -0.13313013921878358 0.4862243752866837 1185046
-0.2028560118813778 -0.04418293782904037 0.47918768247839405 1710617
-0.11634168479367801 -0.19286466479730446 0.4009203901111882 2369061
-0.11856100982268192 -0.19192043884628474 0.43080593368748143 1908511
-0.10239175266752376 -0.14333308054875715 0.49908986061788485 1119510
-0.09356470943532713 -0.13269927278853988 0.5505944584972418 1382166
-0.07392223919090934 -0.09176604007810019 0.5953247568981117 1579032
-0.07297332035436943 -0.054186145968300625 0.594301029195031 1250067
-0.07227824133728555 -0.02935331589192547 0.5939458520699337 790029
-0.10256719608504472 -0.20735371452484408 0.4113876675153567 1381912
-0.09558222294951912 -0.1368488485640471 0.5197316035051087 1250581
-0.06369311325306226 0.043890479379710357 0.5854784268665305 5064509
-0.06677610989967775 0.1363352936793354 0.6038198484988524 1118479
-0.09274022484000133 -0.2193613693993579 0.3966645224110805 987410
-0.09107054911233492 -0.22317808808489037 0.42631414754894337 1185046
-0.09501793038503825 -0.19603756853050003 0.45816105976825217 1185046
-0.07045339817049934 -0.17249197025734908 0.5011652455793982 1579291
-0.13833799742579123 -0.0813496375441054 0.03672915160250656 1250326
-0.08900729492513593 -0.21877879710573955 0.3455092502801569 1053202
-0.08200810286478344 -0.2238123514641499 0.3673139935364913 1118995
-0.07089491135362591 -0.2083476679873133 0.43320693763190055 1119510
-0.06070616848859256 -0.16364082863786278 0.5103496612072365 1513752
-0.1220839587303022 -0.09652604400507014 0.030247073350841314 1316373
-0.12340841934456304 -0.11220268788862153 0.0968418465701043 1250840
-0.06317801448262994 -0.2136565748404906 0.42635961280842327 1119510
-0.06276081573413705 -0.20593580087696628 0.46303879179849994 1250325
-0.12641988861160147 -0.07871770365094566 -0.054295478054042334 1250837
-0.07369181339874631 -0.2164561639923548 0.24594308180232094 856336
-0.07022120188604353 -0.23079395059278607 0.3405130159440366 1053716
-0.06723982396923756 -0.22351549718514008 0.3626341485580986 921874
-0.06619601531622266 -0.22447032152187152 0.3999499597831342 1053460
-0.03547900993898612 -0.16434265597380282 0.5153287078718132 1250581
-0.026216560715072834 -0.14199860829568856 0.5287444602665363 855309
0.0034774179902896662 0.0561870539466085 0.6748200007022611 1644312
0.0076623703573135415 0.03557345015221358 0.7052709818126632 1579541
-0.1672024378684207 0.02326764774158896 -0.5395948282040719 1118992
-0.17146462734461476 0.06549044632571022 -0.5774836975134712 723974
-0.06402002143689955 -0.2200692019467887 0.22298302377789692 5329746
-0.06548602773977086 -0.2268424762504968 0.3024446113848618 1053717
-0.011443434721206902 -0.05048746229957546 0.5774093325415381 9855805
0.005048267375382665 -0.06443635294386407 0.6366481115258835 10315072
0.0067283802209510135 -0.055102575581913005 0.6458864836889702 9136204
0.009372936579493452 -0.04652657591433629 0.6617692134233817 2104859
0.011269625287732232 -0.03261970649447887 0.6714594195736561 1446158
0.025230213899111842 -0.05376672653719794 0.7698704399673968 1250578
0.023222905647349634 0.03391131141411119 0.737159006084734 1381651
-0.15070270611060366 -0.023315919740892532 -0.5344046774702254 921615
-0.132532648115256 -0.018569315779905615 -0.4518342221891889 921615
-0.12315479913906602 -0.01201627130865468 -0.4155366642643976 790286
-0.11998865329403952 -0.016043982884926145 -0.36180077565022706 856336
-0.08444131576579883 -0.09209096926434324 -0.08687169161564667 1053717
-0.04689388542591466 -0.23461661096749076 0.2183215809350838 987924
-0.04191651304582589 -0.23849792361600697 0.255207819515578 1119510
-0.037878349555067636 -0.22959649675468885 0.3351978881069102 921872
-0.03344092614474814 -0.22501972006654736 0.365055234181469 921873
0.004326113408308352 -0.11634552931234676 0.5602689712956508 921104
0.03227774252371374 -0.09349317513156219 0.7567921295537019 987151
0.031708593944241414 -0.04722390064435622 0.7852135476938742 1250324
-0.12289583917463442 -0.0470088319730273 -0.5486606977481323 1118994
-0.11000114541848705 -0.04411850315125321 -0.44861597743663917 855822
-0.10338879903252751 -0.04516014474450003 -0.3966586322184831 855822
-0.09895093116592957 -0.04548627457307797 -0.35009910475463646 856338
-0.0991348304544295 -0.043475403230249565 -0.29782309285753417 725266
-0.06502571523228973 -0.09432146371844574 -0.08402850834223252 987924
-0.0300549168188895 -0.23989687771406842 0.22710047635394393 1119508
-0.026118133130416776 -0.2406596111985322 0.25807124222361 1119508
-0.03095065305253719 -0.23608639556036892 0.27872285562778876 987667
-0.004643152745228196 -0.2021960492414978 0.45783648663162535 1118997
-0.003176598148073584 -0.18812364476221388 0.48520622015457837 1053204
-0.004416358996154557 -0.1677791975706242 0.509285798849453 1053458
-0.0020937542613688187 -0.14307255394848895 0.5200896260557974 723979
0.025320502325311356 -0.0759230242938389 0.661586254744855 9199944
0.030051763582962465 -0.08133414821643026 0.6983503713499415 1776155
-0.09968307117752007 -0.04488096392924534 -0.5557266680924131 922129
-0.08297826835135336 -0.06336469509077558 -0.4082428023599214 922131
-0.07511314311029693 -0.07308717037011814 -0.3385124121821186 922131
-0.05472379559268159 -0.0967925949982229 -0.1581721797101887 856338
-0.013994198254478896 -0.24203672479828375 0.22996312353810144 987924
-0.004997771183403277 -0.22271636941752826 0.3424614833677384 921102
0.002221046155967965 -0.21377313025752542 0.39967831389604314 1118482
0.022532552625093683 -0.07624579622764038 0.5717269460187147 2233872
0.027431407896140403 -0.08206218666431297 0.6354725177193046 11826514
0.041157528138227484 -0.08876291449247597 0.655834334963852 12485214
-0.06525718392250912 -0.0677816346142528 -0.4514643671334879 1053717
-0.05681213036140775 -0.08257963466547125 -0.36786465309824323 1053717
0.0008609567219175496 -0.23739003981089768 0.22000476097118304 1053717
-0.003856939121015479 -0.23617757220762625 0.24807057551210865 1118740
-0.000339171876058586 -0.22880405089666223 0.27725546786397337 1118737
-0.003905465646730555 -0.22404927575668898 0.3100762520503144 1184274
0.029186350729775157 -0.17937755844440995 0.4664619713534637 1250067
0.03347574667921238 -0.14685857642047262 0.4962998929195881 921102
0.03380186157294407 -0.11415754396864264 0.5284970185521392 1052688
0.024827872639938686 -0.10456356102721909 0.5510397111518945 723980
0.03495349966863248 -0.08236927674172545 0.5477447954732264 658443
0.052913141839193045 -0.09830239719323419 0.7586613455196272 855309
0.054130022916432985 -0.08006453031695226 0.7892422659604879 855052
0.06900415385201786 -0.0483050895489292 0.7972983029031475 197379
-0.023576157451348667 -0.09612195156218961 -0.24734603942351674 724752
-0.015064168497147534 -0.09823439345026763 -0.15841335374567778 790545
0.03930127274997375 -0.17797539002950202 0.4329348642242865 921361
0.057533489529848936 -0.09492196064585423 0.5925670829322334 5846052
0.053737958474687986 -0.09574430190638772 0.669592347154379 6968386
0.0597219803666289 -0.10624495403131373 0.7288798547974467 986895
-0.005514917350271542 -0.1047959758307746 -0.2756753849744953 1118992
-0.0021961653973883166 -0.10109656520128585 -0.23858257897560176 789775
0.001437086622015471 -0.10056677242613077 -0.19657242862999125 790545
0.005106460625624365 -0.10140415656976298 -0.1535979007862962 790547
-0.0010436900081529643 -0.10203747235777261 -0.11206813743207666 1251098
0.0011253734129352821 -0.09291473717452092 -0.0918338492423304 790547
0.02483122594019127 -0.22971355673227167 0.21883190858151447 1052947
0.03052587197379797 -0.21634396645655762 0.24774547201461106 855567
0.039290431747077914 -0.19344413357287937 0.28031016234021555 657930
0.06098766549618251 -0.07607398410082133 0.5225167657235392 460807
0.05410162771334637 -0.07570417918656958 0.5503215597709428 984837
0.08112570612431602 -0.1191288633558174 0.7368649967684708 657930
0.01741685983789676 -0.09341481016060804 -0.25648891398439666 987408
0.021896298516228097 -0.1032178710983529 -0.19274530710034954 856338
0.025057183041469422 -0.10359134723916874 -0.15075633201000782 725011
0.027670021208194395 -0.10034367904637387 -0.11767319261026654 1843493
0.029802065775501596 -0.09370313955186971 -0.09250179650250279 724754
0.03197161511800317 -0.08810563892358747 -0.06635744219965312 723982
0.04822499444842521 -0.21637649937224657 0.20730610682815853 855568
0.05853908749186054 -0.08914636274591636 0.2856038890290431 772
0.0711489271776431 -0.08949272948358855 0.45258942258753976 723723
0.07470263677553879 -0.051159686545311445 0.4820826993395635 723467
0.07721987251421947 -0.061916376818051955 0.52030241604119 592137
0.08886510714843032 -0.12247632193670643 0.7477417059114781 723723
0.08034931964127123 -0.10253446201199345 0.7541266516823191 789516
0.09069539623900935 -0.04307044047875319 0.7890708069791021 789512
0.061018842884528635 -0.13795501946993305 0.2726451398539289 263428
0.08488217299583356 -0.10881222696162318 0.6432486089324763 11565652
0.08890391131195186 -0.10678917536900645 0.6661222651547787 8020297
0.08515815945410532 -0.11414040473720677 0.6971271599714379 2038554
0.0906391307957084 -0.12366404614303717 0.7256937938996308 921102
0.10546227271733866 -0.08207930916409634 0.7687190417053436 394758
0.10829655970272123 -0.044582781263833304 0.792192133930268 789515
0.06588310319438762 -0.06401377195027935 -0.15293288957620188 723723
0.0671045254866196 -0.05151970169073561 -0.13860770894833374 592137
0.07905686542320023 -0.12540545651541812 0.26804538081375817 592650
0.08004562354565792 -0.10504531177581722 0.27282380028627373 460807
0.09029151724064644 -0.05196856544556949 0.2859120771001653 131584
0.11074098453501158 -0.11392166300094031 0.699835953421504 4735805
0.10685558741075019 -0.128754263840146 0.7344807495189212 1118481
0.10789225134800251 -0.1287647644988752 0.7517312605797357 986895
-0.1634877983681391 -0.057909382253225505 0.5276444155222149 1776411
0.08699473390578127 0.012964728739081721 -0.18504215142269143 460551
0.0994544411145677 -0.14815998257847385 0.22583159031021127 593164
0.0904347911418606 -0.14106254459744028 0.25007178442136446 658700
0.10871475673441289 0.004993703885637579 0.31281486129218394 526087
-0.1836526818110209 0.06689467438350949 0.2168519889850835 1250069
-0.18154947270022825 0.050900664677536955 0.2477619299590832 1053202
0.10159776081647953 0.16847968876781572 -0.5141721016688503 394758
0.103230653941627 0.16238127068948938 -0.45932023544291023 328965
0.10550340273870118 0.1276064371211918 -0.3552031757639209 263172
0.1065810732564012 -0.12690280656932051 0.25169270408910194 855565
0.11064378334059466 -0.10442278947712369 0.26993210155845837 789516
0.11182476577472089 -0.076824178710174 0.27539873075960664 592137
0.11300196563050102 -0.04892277089130248 0.2801231085273066 263172
0.1258966624552751 0.2176749847684878 -0.5620288977367494 197892
0.12143538384773489 0.13562597521246955 -0.3183958489515889 132099
0.1300589796752778 0.1321401717438997 -0.2511739874473091 197379
0.1511899866148636 0.15055919437354204 -0.2838128921157743 131586
0.14518478489795772 -0.04716713735042699 0.2824547135489821 3680543
0.17427428278190416 0.21071749216492375 -0.4264107562119166 592389
0.17383035434727168 0.19021489274368575 -0.29739805380844664 131586
0.16966562112383388 -0.10148926754249787 0.2657044387559244 3616811
0.18092007137882238 -0.07620238018193781 0.2583045685097254 5853770
0.17055772480314157 -0.07615975738818781 0.27469790958951545 2828581
0.174214414868628 -0.04595868384041735 0.28347104325157346 7167052
-0.050776402842597435 -0.08719351586715307 -0.3099955085439212 856338
-0.15290611285227929 -0.07747199057563492 0.12442276579838829 987924
-0.11877730790604302 -0.15686866218503503 0.3041729716768138 1316889
-0.10759348584362094 -0.0007300869923643205 -0.385204943371259 658443
-0.17760453249931896 0.07184274241412325 0.3618372801283014 1251096
-0.10041160326357845 -0.08940058429908637 -0.4581234578650284 1251096
-0.061950687886213274 0.24239849684804282 0.46233394881181744 5461071
-0.07392503662115502 0.2503186062441274 0.4223749301302615 2763303
-0.16085509432231193 -0.044278650579432366 -0.5254655400763724 724752
-0.16996900105023993 -0.06960497373022179 0.430263225466182 856338
-0.03200110643805942 0.21276870867979003 0.5441192896067726 1184533
-0.003052301385561229 0.256426133911412 0.30871062798064197 4539974
-0.18272144037601068 -0.07367073417133119 0.27812357514295494 1119510
-0.03460339312006688 0.2176561514175619 0.4768195286199328 723723
-0.018886464100751343 0.21557225469050634 0.44311931367785196 395017
-0.03639041310946167 0.2294385100677352 0.42189739248298497 526602
-0.00016345625193547875 0.23522448699991383 0.318131783347545 658703
-0.09925223382128223 0.1806417542019494 0.6006604705510203 10461590
-0.08972782348166586 0.19234213948956924 0.5838266266708554 2039580
-0.03894314393705711 0.1922841096604304 0.5720784706008895 2170135
-0.01821750230162511 0.18592948322451353 0.5437713462769285 658443
-0.019200571913847497 0.2071230983997463 0.4055369400946731 395271
-0.024227890324184376 0.2233020325511088 0.3666150267439199 329480
-0.022619456518349956 0.22473166634034758 0.3415089861357783 263685
0.030386378253747903 0.22974033659588855 0.3120911053436073 1118996
0.05678552262534975 0.2171419020390859 0.31912048001467297 855568
-0.064888316706746 -0.14459443621358137 0.5256239510749177 1184787
-0.06428458794434366 -0.13660107475965733 0.5490879703259877 1184274
-0.05973420310150379 0.16844147071972904 0.5864981558891056 1842462
-0.019083782569280228 0.2010026966997902 0.3459821142872872 197379
-0.14356788123504494 -0.1288463883814437 0.45307773751095826 1513755
-0.11215755650149628 0.15269218048491284 0.6259820521232662 1316369
-0.09315632136914953 0.1581152162742927 0.6256140597746589 6119001
-0.08465909054107845 0.16428080964513603 0.6058744490079806 3290160
-0.035933511619874015 0.15544469241888903 0.6005403742882973 1905934
0.007025477628672672 0.17087228831255397 0.48584340552219185 329478
0.010684363327748247 0.17062942175828066 0.4518202806181091 197892
-0.012859978345043377 0.18767894696742404 0.36759670021960344 131843
-0.0025635554211214107 0.19405795393460679 0.33629412878749876 132099
0.025556743293922324 0.1935906739716824 0.3312698976132966 461580
0.09498732042182656 0.18502549099126053 0.316467120199581 1052946
0.02487586652746021 0.1560922182261386 0.45113290729794486 395271
0.001964940645476254 0.17009921901720615 0.4031591228082587 132099
0.006528766882524906 0.16677309437945098 0.3690746540816341 131586
0.12913109805423328 0.17239824045851737 0.28204155910589956 8422017
0.05112601868871236 0.2253776899654758 -0.0498472403390714 6776678
0.07724033476455894 0.22988498812006508 -0.1751362461838668 11645100
0.03564227951364085 0.2527344546051622 -0.349904500586786 11974065
0.08290007424780654 0.24751737109819238 -0.32250979054709394 4934731
-0.09067965856109295 0.13322054014149343 0.6275786203161386 2698544
-0.047189534398387245 0.13170460347782154 0.6258110891178477 1448216
-0.03258842748970814 0.13438315440844395 0.6105332537878208 1052947
-0.012617823631441816 0.13064881490006997 0.6103112854212764 1315859
0.01620474794754445 0.1296330597939055 0.5665887397351805 658443
0.02432487576982112 0.14745901485986712 0.402516706237964 461064
0.024450627765306265 0.14966095500358856 0.38256291085782945 263685
0.02640628303028203 0.15158293135935397 0.3644873251598184 197892
0.029456210686064743 0.1629437115479888 0.34305974339144174 197892
0.11797608121364878 0.1520867700832147 0.32725060604693 659215
0.06219945336731092 0.17424678544832783 0.1467967639609118 725781
0.0494925108059987 0.19098357680596223 5.617804378132973e-06 593428
0.05728163860419411 0.19690774777262243 -0.056337907924200126 921615
0.0615398548297561 0.19996834214511416 -0.08553012961303019 724754
0.09566351399403361 0.21397258478803538 -0.22432867975054394 790545
0.08895240626742895 0.2440818872469821 -0.49416773896084654 1118994
0.033282173555236216 0.13626071102115445 0.4585339762662941 461066
0.03541933872716374 0.1362343316067247 0.4363241445748389 395787
0.0419744200382528 0.12994221726313793 0.42553204545628276 395787
0.11944769220838047 0.2204257056226444 -0.2911633538189584 1053201
0.0423212477461572 0.13287552444131467 0.3960726347040904 395787
0.14186317924331693 0.13463704189844528 0.33984975963865804 1909028
0.05924569289530668 0.1701067299940897 0.01729957014284489 658961
0.06371326867589966 0.1725569952665591 -0.008929222227643807 658959
0.09046107105108891 0.19565309675484688 -0.1482681035358978 790545
0.09663005656492274 0.1985495695099715 -0.1780892334747174 856338
0.10699304468097504 0.190018116124413 -0.2002799978324845 790545
0.08540334036966613 0.2269516262390736 -0.5611371823173175 1053717
-0.054338778844991165 0.23737538769003352 0.48767266051235425 11185062
-0.05800232740704647 0.10470555278584781 0.6360046214591049 2040096
-0.03798844544435198 0.10751981865212556 0.6321164090350202 1316373
0.03857391058795434 0.1096127055113234 0.4948461655829157 329478
0.05984499143511046 0.13345996894361312 0.34585302405564744 329994
0.10838805453087152 0.13083445558529938 0.34053356391875056 1251099
0.06310936661570388 0.16665449138998278 -0.04534757631495234 593425
0.06824859571519415 0.16901502814456393 -0.07262645556983305 724753
0.12332408933166317 0.16948388018696647 -0.21046676415621968 1053717
0.11026309055120587 0.19590274252484852 -0.5001899923946753 987924
-0.17290335837623694 0.09909402279428692 0.6347591179524688 4474173
-0.16302923599624508 0.10226508207625473 0.6290587075646175 3092783
-0.15036481864714357 0.10573405493824595 0.6159498687117175 1709843
-0.12891257138771417 0.10507226144236048 0.6144270903183333 526859
-0.09213082537329775 0.10522224999028928 0.6269025538394621 1448217
0.05266356153223617 0.10782135775159718 0.4296534679640678 593166
0.05971435776589962 0.1101454437406657 0.3989932613128524 593166
0.06577781613532796 0.10997886120218858 0.36875615724743627 593167
0.15955956951577477 0.11001107785641828 0.3554396896913816 2896700
0.17562327830972047 0.10188492318986153 0.3565010458789748 1321527
0.20006126194551532 0.10385170479109807 0.3199803165923554 13491692
0.19675512417375973 0.10656084449566894 0.28722177770239354 16121343
0.108152019627898 0.14637412233325087 -0.1752011214901793 1053717
0.14956227957960344 0.16532873861599873 -0.2971132662671445 790545
0.15617325300598406 0.16818610017414048 -0.3339882650663626 856338
0.03918188736763906 0.08022658893854784 0.5292873360949668 461580
0.08031661217337627 0.09078670250541654 0.3527344869569897 527373
0.17653355530075832 0.09607353593886803 0.22366113688929912 8751496
0.09485669606643743 0.13385116376573158 -0.13845486225411507 922131
0.11528672078882707 0.1380117535157952 -0.20420740312912156 1053717
0.12452982837130921 0.13220725442420367 -0.2212699545131458 592651
0.1187158714775336 0.13481445376584178 -0.2925616323011364 527115
0.14262700012682572 0.14014138187746772 -0.3207222913285579 592651
0.07781786382572742 -0.08475664259694371 0.34564087514362485 460549
-0.17384727989233673 0.07603139232878187 0.6469050742925544 4342583
-0.09300612680950904 0.06983647200788434 0.6345407152253073 2829099
-0.041237853531816526 0.07797527188969244 0.6308913832840588 1644824
0.042668877071658784 0.06674884597619002 0.533334288796842 527371
0.04803256382782184 0.07588583346490729 0.488609575765941 395787
0.05137563139811707 0.07779450125297194 0.4563989743426269 461581
0.20895467467737072 0.07535988971045704 0.28070658364061396 1450018
0.08320741165747769 0.10377977342188505 0.026654308970224916 1250326
0.06685321243395714 0.10103608447368995 -0.07434154513775382 659988
0.08257735002327227 0.10556102803614964 -0.16236101786634882 987924
0.10468368820399565 0.10976318454620193 -0.2487859645827022 1250326
0.11160781247379603 0.11139053723917236 -0.28123356313701753 1316373
-0.1705008179856078 0.05557091384503865 0.6532454584070166 5131325
-0.09017248851915527 0.053107125824938706 0.6451356597590501 2039583
-0.06342719585230094 0.05209730784629718 0.6464376023367122 1776411
0.03176990362871379 0.05066759797591214 0.6053564414822248 5391161
0.06942625652189971 0.05897115074438419 0.40179825481864295 856340
0.08066432134327517 0.08746641356373486 -0.2084127527985049 1316119
0.07855515664990476 0.08985689502997873 -0.257318625000315 1316373
-0.15401105487040523 0.05040653540215834 0.6416162767378608 921359
-0.12247837333612166 0.0485668500014671 0.638598006547114 1710618
-0.09459922256201558 0.04102316093299452 0.6527599011919636 1315860
0.04960785779567134 0.03136291794657797 0.778780466847121 1184274
0.044557529115097694 0.03252315089544355 0.7520637473755791 1579032
0.012562226958681144 0.035221782243263444 0.7090348338410486 1381653
-0.03904088506172565 0.045870231474262724 0.632540956034658 1578774
-0.0034121811334650864 0.047528288728918344 0.6117018741688143 4930355
0.06482190940032373 0.03511326153147554 0.6626518280174263 3678236
0.0511276702418102 0.0401044528383645 0.6477217637555532 5125933
0.05094296765231654 0.0371872692686277 0.6194725130137153 3813161
0.031164210505520096 0.04555140658870149 0.5825291276347973 3353897
0.05123833378997933 0.0486157503248017 0.49240297779746434 790545
0.05469434166660214 0.04860235556675763 0.4567161184344828 724752
0.06653707571659373 0.05076552766816578 0.42810902260050354 790546
0.07295663610100878 0.04963644641066045 0.39269507331723985 987926
0.15299409893930171 0.044652428350943296 0.32057450919513464 7047336
0.07103215667973073 0.05912051478112845 0.005336794397033495 1185050
0.0596839706657053 0.07113909006719865 -0.05048679488968644 856853
0.0634754958631607 0.07225678072380237 -0.08026073249422694 922387
0.06295290100505113 0.06399555864968143 -0.11932485688532224 1250580
0.05282649439067555 0.06808823331299951 -0.22082408512638763 3882298
0.11272023497357386 0.041689815215163684 0.33719541991075785 7898770
0.17531617382547537 0.031302580835779636 0.22211476518029816 3422267
0.06529800382410134 0.043933145548243235 -0.11457273440480131 1316373
-0.09488814418840086 0.059934823925553715 -0.5142018485798088 10724511
-0.12228110538972325 0.023862533104658468 0.6675568655592183 2302756
0.03374936344075463 0.010597259163444672 0.8046868898059996 1841945
0.05189922033207628 0.01668499679959856 0.8082552837328432 1579032
0.13913825356936105 0.007751887524470202 0.7618933876187366 526346
0.07862106514675338 0.01754396027569083 0.6432546032949265 1643536
0.03111534154026563 0.021116387912448076 0.5513100709052998 3090979
0.034211453960485194 0.024992673963231127 0.5184723107408442 3749426
0.040601984823608106 0.015266324240549967 0.49645987067640274 4736837
0.16363390383483623 0.015369739858031473 0.23097503523249663 1054230
0.06433929309031772 0.0230203073546007 -0.04142827749055966 1120023
0.03593177280518267 0.026666394761589274 -0.21106285866893226 4474953
0.12825001154711568 -0.001904272927781836 0.6646883470959288 3943204
0.04786563362656171 0.007966865201748163 0.5307237445340338 4076332
0.04838726798728388 0.015138108816249662 0.4885175217849378 2698026
0.056260132311255706 0.015393096991342059 0.45693797988700124 987410
0.0679124716344135 0.015270620834482163 0.4395825255887966 856339
0.07675954526199424 0.013758600570535684 0.42440286069203603 790288
-0.09600102677424616 0.015410036988304121 -0.4509131285134278 1316632
0.06885788975403351 -0.010686016336943549 0.8364475962349107 1052686
0.11577398480973633 -0.015643897303995402 0.14890556007370237 1382682
0.11614260155283107 -0.015806993169184658 0.1187695842852381 1316889
0.06935458848392884 -0.015059930787002518 -0.03182969275079017 1316889
0.06633449624717658 -0.015173547378302565 -0.07379520365504666 1185303
0.06725682253264864 -0.01538483403458546 -0.1099889403240688 1513498
0.02894437164711894 -0.014726327194106048 -0.22398832555643367 1514268
-0.09845178439246727 -0.012119919462374451 -0.5200252941326682 1514268
0.04009257690150969 -0.01982558199345119 0.8196497714040951 1907997
0.06374254868563867 -0.010568186303302252 0.8259326812297203 1250066
0.08720134914898248 -0.011323098257523867 0.8241293104807401 1579032
0.1192857384255217 -0.011624650438631257 0.8173021081654881 1249811
0.14817206459491805 -0.013776660092314597 0.7258441647188343 1183503
0.14816720606258693 -0.015511059390863391 0.6956671019075005 3417890
0.1427029209475612 -0.019946738424590382 0.63769821962087 5652018
0.08784675678622289 -0.02542636770745199 0.5544808424947056 6310460
0.06263567195078412 -0.018725563658288813 0.5147693645759523 3157285
0.060565276737056806 -0.018925078180964672 0.4857854771480328 987409
0.06482031851572412 -0.0170229977972447 0.4607097224260708 922131
0.10723469875061298 -0.03300976862402516 0.1033040288114524 1514268
0.12087883803376442 -0.04039014828362575 0.18734280246957424 1646108
0.08891418689753294 -0.05066389340332611 0.0713355925792154 1777440
0.07573305690630194 -0.051718774435337345 0.014892775873029951 1777440
0.06665633655289493 -0.04780350783243392 -0.08180100614342478 1053460
0.06134576956201876 -0.04490927142611589 -0.12081080799575072 1382939
0.039331658350285625 -0.04592644107211008 -0.2032978402333383 1646111
0.08560957501021482 -0.03413957453754479 0.8320921712909417 1644825
0.1598292436525397 -0.04297229045643469 0.6729806371599987 4929835
0.1134562467753204 -0.044257020077932197 0.5859622400243445 8282189
0.07623024670700929 -0.045059725809838636 0.5229909249850035 3750188
0.06669368242748597 -0.04599798430934188 0.48439203805159314 1316633
0.0747620199481478 -0.049259960685555715 0.38787962419303645 1514270
0.08189074262681562 -0.04411235342401776 0.36138129081556936 1119254
0.08672011959443493 -0.049478732304009565 0.3368978140122163 1053716
0.09082883113747409 -0.05198724942824784 0.31462901195130466 921615
0.12920623305677292 -0.06384720499903818 0.22966717877603604 987924
0.0727831966073551 -0.06891413713365857 0.04321235797631773 1843233
0.054896180876948364 -0.07704193902662926 -0.04831575767526319 1119253
-0.08411996250864551 -0.07272825160249008 -0.47112965777277216 1579548
0.05810766166762349 -0.04214092844223849 0.8232553817509578 1184017
0.09045047781762339 -0.043885670360900075 0.8364317819326705 1579032
0.10973597316256356 -0.04615311691271673 0.8349463599689833 1973790
0.12161960604388744 -0.040211221727621815 0.8253316022460984 1447446
0.16535533965028515 -0.048315138137119185 0.781383774872787 855309
0.16706858033129413 -0.045792896148556306 0.7591756673199006 855565
0.16516534695759333 -0.04905175149444929 0.7259961327448514 1578517
0.16442145579047684 -0.04783821944013544 0.6995181177828056 4863532
0.0726712911421572 -0.07244729912218606 0.4621663379284444 855567
0.11150084152050965 -0.06768526280404874 0.31759668035517685 1972505
0.1439962982166927 -0.07423692272635485 0.2771402906647742 3288874
0.11797098157974872 -0.07348137752992656 0.18265825604919472 1514014
0.07892672105279175 -0.08509166461845163 0.0860792379530293 1777442
0.06150470448205647 -0.07905497499628922 0.006714171666861057 1777441
0.04281989704770828 -0.09691268757959204 -0.16037718655800903 1053973
0.04002679183521529 -0.053710998876832505 0.8378249813528258 2631461
0.05255287317548207 -0.045900807435027335 0.8398303062235151 2960939
0.16657476217023737 -0.0696035738647085 0.7087022143912993 3417374
0.143362575294967 -0.06710046751904342 0.6380262918080739 6243125
0.09056651562143925 -0.0705889279456362 0.5407447618926844 3880240
0.06890694338104275 -0.07275459729438527 0.48702119897029594 1382683
0.0660875892298236 -0.0743016232437399 0.4557502885722269 1382682
0.07198656826377992 -0.0842341485701259 0.4046559536630874 1645856
0.06333914920276795 -0.08295198006535465 0.33535342537117874 1711135
0.06562118805398853 -0.08883065246399813 0.3118758369582588 856339
0.041031362286723994 -0.10523891881640468 0.02106212406645791 2237993
0.03934976853380645 -0.1072530972363448 -0.015071783985560527 1909028
0.03896647371080775 -0.10925192673773942 -0.050281502546172696 1646367
0.05362430443112309 -0.10158003214881717 -0.07785073961660771 1646111
0.05137759872246006 -0.11247033364145453 -0.10039840682047974 1580059
0.16651954977415695 -0.07386293366462704 0.7285364559639653 1184276
0.11312027549316372 -0.07518339131291274 0.5852540092008951 7296840
0.07994258338885674 -0.09039448307364006 0.5272463003634964 3881525
0.0771647174659087 -0.09386605521963443 0.42024381740567285 1184789
0.08689035195886063 -0.09726926486180831 0.3162050712341362 1645856
0.13639107011908447 -0.09698830670288272 0.3029615373621153 2368806
0.07044969526535905 -0.11876147021917483 0.10277908865698593 2435372
0.02794663493861327 -0.12458532330470318 -0.0012898026671035456 2566189
0.06062366847396028 -0.07627672938004304 0.814591691714792 789516
0.16216660515783632 -0.08979618931747302 0.729919699790962 1513750
0.13291494766439493 -0.09598486166131082 0.6400638368152591 10386280
0.08950978898707751 -0.09531249764720195 0.5759481761921772 6044204
0.07736328120578184 -0.10218311119016654 0.5407937256863966 3351064
0.06752540255267592 -0.10499678039139848 0.4519484443724462 1184789
0.06850096612202439 -0.10570595659543791 0.4331035238365524 1580063
0.056123108405212285 -0.10739939974096835 0.37222702783602246 1645856
0.04029407199192958 -0.1168244954559543 0.3395621838832552 1580063
0.13912499847253867 -0.1226975086641997 0.29901102885922426 2566703
0.025051815031771785 -0.13421690663869512 -0.051489638748912436 2303528
0.058437534347964615 -0.07317883968411021 0.8351672332289986 1908252
0.08678853499061967 -0.07483708652657395 0.8384970232095033 2171168
0.1328637717030201 -0.09266520915456056 0.8103411877994906 1382166
0.08145152495141073 -0.10613424537515082 0.6106156227827719 10185807
0.0552450987686921 -0.10476129953542879 0.5157438022589929 1118482
0.11779592490631519 -0.12942981894623795 0.3029616401915596 2435117
0.16453862254080764 -0.09859324790178992 0.7817116608848191 1382166
0.16432729911389332 -0.10338901522107014 0.757372798831887 1579544
0.04216880223422237 -0.12310993464001374 0.5779200658731538 3089959
0.04523203799004927 -0.12748377494903584 0.5343366532339024 1777438
0.06151507209009388 -0.13456346653456386 0.4310967397429615 1250583
0.03729133926829231 -0.13641657785307526 0.3672488890002923 1514270
0.024991059843831653 -0.1461119348460107 0.33987006098576433 1119512
0.026911173248841624 -0.13868570770596778 0.31340831113156464 1251097
0.11385506271888612 -0.15267282843540286 0.2968855899885947 2566958
0.13620484817068768 -0.15349728953180186 0.2944555491069689 2895151
0.08091569494782913 -0.10038359812172182 0.8432213766423022 3487024
0.09342160455828896 -0.10258166808358693 0.8282055857430879 2171169
0.11489191411329491 -0.10150884162128015 0.8168093480986469 1579289
0.025188942965200578 -0.13114665995000907 0.5448516149808116 3551792
0.029680665228302594 -0.1339050681461913 0.5154229677169775 987152
0.04902898863215155 -0.13428749774212356 0.4879748865137048 1382169
0.05973594746681643 -0.13233681876321723 0.46080315864760757 1185047
0.09354647787796644 -0.16810234699089133 0.290251293232606 2501423
0.11785743675023053 -0.16867123933605122 0.2907248718579296 2632749
0.10433167518334452 -0.11835970146471997 0.838259416750808 2763304
0.1156387230344813 -0.12346134159948363 0.7978054499368923 2369576
0.14772043833963133 -0.12561760618571283 0.7864043677218258 2435370
0.14477954320778075 -0.13014467746977543 0.7477991209039867 2369577
-0.002133606022979073 -0.1345321905237009 0.5499525996279897 1447703
0.026656714825525007 -0.17061131865208745 0.383550954441356 1448477
0.027045684353269817 -0.16605155766867163 0.3598321802026423 1119252
0.022207788696537722 -0.1716001125365616 0.3371629120323649 987667
0.02728167027324835 -0.16422309987265482 0.3101151094588479 1316890
0.02989728866518604 -0.1604615674852541 0.5152662997257997 1645597
0.05813455424340086 -0.19376488573889272 0.28078126644581625 1711392
-0.06104730632456601 -0.1670017232507659 0.5998986821505954 2303268
-0.025064864545015553 -0.1732575582003566 0.5612008994701081 2369579
0.02707801566688861 -0.1941797776715597 0.40116605331213107 1184788
0.019700095828428132 -0.19521422212465023 0.3646375199647187 1514011
0.023061205560118037 -0.19472652976265792 0.336543334025611 1052946
0.027385920229732186 -0.19639064638295034 0.3093869300378651 1382425
0.058554413352564616 -0.2187986136581963 0.2494336873162748 2040612
0.026184893255496444 -0.19408558761753048 0.45586438026788123 1645341
0.026448444901792545 -0.1944812098866633 0.42689696525048504 1447705
0.014224536498201878 -0.21586346551312996 0.36673162173895424 1777442
0.05478624408270649 -0.22207336541189626 0.28033970984430456 2633008
0.02747125331428979 -0.19291807328319965 0.4915834156953547 2040613
0.021349460779793716 -0.2196735429999368 0.4343141620968274 2698544
-0.0009730826186169494 -0.223394511008411 0.368495975474622 1645084
0.014266871089564592 -0.22338974810744183 0.334311685951866 1776928
0.027046612190709585 -0.24160904032574404 0.29826841125964054 2566704
0.0016188217457644427 -0.2310362214066417 0.4459343418614712 3093302
-0.006157427046733055 -0.22237443066022688 0.42283765755990177 1842721
0.020313912870274287 -0.2582544795247306 0.288720592266402 2631979
-0.033174739512565665 -0.2198747545576385 0.5441637108591741 4606281
0.0003271300622511575 -0.22887772930904515 0.4892843057657501 3159096
-0.011334991184537735 -0.24733684782938337 0.4297658164896798 3356474
-0.010947388419931592 -0.25293235130102554 0.396003727900337 2632752
-0.006359287610036457 -0.2536955821390756 0.36576292670194044 2566701
0.0007992960096010471 -0.2567347335558954 0.3381775558384563 3093303
-0.03540984009195336 -0.2407468514488984 0.5339758727892203 12961472
-0.03361150181731354 -0.24332426237652416 0.5206752927387983 10790563
-0.010092051660973045 -0.24790972605890738 0.476490660049965 3882301
-0.01379983189243461 -0.24977032685937361 0.4533632407547781 6053728
-0.17418586310077222 0.02116403971913039 0.010884567462950412 1118481
-0.1687891391720422 -0.053043490131509774 -0.004189235409397751 1185303
-0.1639786354149857 -0.036765370330602565 0.08673756926507403 1118994
-0.13162624148354318 -0.08507000932258357 0.07461097753013668 1381653
0.08151872428387597 0.22370686020302388 -0.12557301996830206 8750208
0.14271174372239326 -0.0993084557049988 0.6733905861024649 8016967
0.14182574189081265 -0.07088315249447685 0.8133158868558172 1052945
0.0730754252236574 0.08643310357087719 -0.18090816273946886 1053717
0.1506484316346035 -0.09559898152967028 0.6988639329390063 2695712
0.1547279554391987 -0.07617160442743964 0.7991776275803553 855822
-0.09028153867329047 -0.12417484674816937 -0.1319391603152129 856851
-0.060710816155912894 0.15127423278084562 0.10921574241043497 922131
-0.06568986788736453 0.13384502644147256 0.09359860951290044 987924
0.026269283389054543 -0.11798266475883068 0.6319245340944215 11698279
0.021128824753116948 0.13936808740880569 0.5137070478174972 592393
0.07504337897377233 0.10204361608363577 -0.09686725079356218 856851
0.15279094115047354 -0.040194782402956264 0.7959942873400658 921102
0.019491524259604986 0.025991752483260466 0.5694724922181689 10713429
-0.03253205611626786 -0.20673296955021403 0.46031192982746916 1119253
0.09370290322455777 -0.023935541660941695 0.34180159050278114 1514268
-0.038992514781370335 -0.2584615861842523 0.3979857025163258 1711647
0.07164605999097962 0.07373756443156054 0.3944606516521534 790545
0.022289666546059017 -0.07335165373774988 0.7605315372425092 1315860
-0.03202296680439254 0.18218912348271088 0.20777683867005003 658959
0.08798920526494403 0.009617305069775206 0.3668537095709308 790545
0.06917412899732911 -0.16454043448692746 0.25556961808346723 526860
0.06761554373460577 -0.03389773121496242 -0.03478449324824151 1514268
0.07744771906387982 0.10682009571506157 -0.018477500690944004 856337
0.0757008667964727 0.01564548538848909 0.3998198898079015 922132
0.018935844209102548 0.06694480775610989 0.5985314318331227 1907222
-0.007601939299767491 0.022018443277703525 0.5794782552387971 13602910
-0.024618410184316097 0.16747175771376233 0.09924593924695557 1053201
0.1786174811399448 0.1072974470361916 0.33382259923555146 4609375
0.08257788875055994 0.1966816258700903 0.2780089041870679 592393
-0.16753188686711606 0.052534501715327586 -0.001142794552968951 1184022
0.11380662952252996 0.02262472938599558 0.7675572658110619 789515
-0.0038733526746588254 0.18864662275092536 0.006259428038767334 986895
0.14913370516752122 -0.1064280456157718 0.7929279008995485 1645596
-0.030134596814545667 0.20524945287752594 0.49619223685100233 855567
-0.026770586405945096 -0.12411681759258109 -0.2603181747776111 1119512
0.027062203735410684 -0.16357140892805333 -0.024995030099443705 1580061
0.07564474573182123 0.17137088585151616 -0.307886288669325 789516
0.07109213088595956 0.003735977460726403 -0.028877146267537457 988953
-0.16257538891928336 0.1086727800415721 0.48755112540710566 2040612
-0.15909358628303671 0.10401054442535385 0.5227689731156235 1974819
0.2086901446634415 0.02227991263047091 0.28214261359569703 6902088
-0.02038812875823215 -0.003495781797361097 -0.37246792180131094 461578
0.1601642600053319 -0.07578608492743744 0.6942015857153436 5586741
0.01763492452159543 0.07983633211699104 0.5731109098396034 461064
-0.08021509885403688 0.10208796762877625 0.25091823203767505 1316373
0.12315047706022808 -0.08024722840706744 0.6054236723286803 7623491
0.05707089803097665 0.16408852495199167 0.07830841348077167 1842715
0.003272397064889354 0.27866934013821165 0.22985154015453735 1118742
-0.20796800535970839 -0.0009104136554891618 0.5013617390112333 13685453
-0.007791044785804946 -0.03784376170713699 0.7361292252420744 2302496
-0.1768257283471355 -0.1026120991591255 0.483863131094713 1579032
-0.1724861726808653 -0.09529469971281257 0.30402941687436513 1185303
-0.17055120379443878 -0.09743034110310855 0.512534864542604 1382682
-0.05984941688600465 -0.12286043354986509 -0.27280836032169486 789775
-0.06654142025911058 0.07161541580156383 0.5895667864082088 3289390
0.003154019167197042 -0.20543027598284347 0.4239000558649957 1184275
0.11825103857324049 0.16568612310226305 0.3076018951581476 658443
-0.05633645630471262 -0.1325888062159768 -0.2399965059833915 1052947
0.02400847141141771 -0.1021020656184155 0.5744154026137289 1710616
0.021693782789353744 -0.12524158229642524 0.6477600500715068 9000505
-0.18002024990189192 -0.030290645330068422 -0.01530074052328656 855822
0.044468625057696 -0.08308536906373343 0.5789383456031849 1572864
-0.0010277053045695261 0.06366889297862333 0.6450279789636828 1118994
-0.07363436696842562 -0.20403875807131122 0.30702597778721263 461578
-0.03428993740991526 -0.11125281864342806 -0.38124070878603233 1382169
-0.03524029799552286 0.13258346649414676 0.5789931791482017 1447960
-0.1245327659148634 0.10651450634474502 0.5771787609047869 724494
0.07242371919943036 -0.019687030586012177 0.44537328138254395 1119510
0.08712656086285309 -0.01855737214704023 0.36456467706403806 1118740
0.07186621007656369 0.13907544284919604 -0.06549581670034788 855822
0.05215260032822755 0.09671649428884965 0.5281816192887094 527884
0.0601675651176925 -0.20112220545817783 0.21798040907857863 724496
-0.03601578903093605 -0.044928935556587835 0.5782086809017537 11564880
-0.10461046932429241 0.23845567184951966 0.3791154603372042 1447705
-0.027978033117253442 0.27505106438822313 0.2847754190749454 1316377
-0.10593199742430404 0.03632245853441152 0.21284206836468522 1382682
0.07685686061450836 0.040097379305233716 0.0159530878090699 2434600
-0.1344460930553275 -0.030691120628422386 -0.4242294874295556 593166
0.016185968933605466 -0.2180806257543546 0.3990990762112616 2172200
0.02879710700215421 -0.16973178312778048 0.48846530834955804 1184274
-0.09753018144330827 -0.044340723184507436 0.07288131640195972 1251096
0.07917987930527248 -0.10131344861294123 0.7857837840868185 1184274
-0.08674244560877353 -0.2114711054509466 0.5056912636126185 1711649
-0.02337612942900158 0.16805950134698078 0.06868725071165382 987408
-0.16995111291245868 -0.045143664833244834 0.06613685653236523 1119508
0.055554729870116226 -0.10170296919229171 0.7903776845333252 1513239
0.03039261833265572 0.18807357332214192 0.03313325860912175 527886
-0.10988364043452581 -0.21251247474222978 0.46389998733752114 1251096
0.0942187378462922 0.1471425597425191 -0.4788507774149624 1580061
0.07973554118085113 -0.046256627806696926 0.42066730876650293 1184790
-0.004755363856371098 0.01103468298267929 0.6015923318017296 11237200
-0.1485252911132977 0.1050934994251671 0.5477522447412981 1777440
0.12979178865824625 -0.01582660535039615 0.2022169400043925 1447955
-0.03604571888993302 -0.09740787298903708 -0.08025642289077572 987924
0.26253299864609847 0.2246834656492398 -0.23696320962306827 4868680
-0.06038455056343528 0.10771736896651785 0.6029702545635562 1579289
-0.0964260055860442 0.11000398250010557 0.19169395022789026 1185046
-0.012522131103932743 0.1612808762263711 -0.10820977085897443 921359
-0.08238959784493671 0.13459037688675402 0.160262306540788 1119510
-0.11230839632221157 -0.08186546402535377 -0.20034745309257151 724752
-0.002066595440104013 -0.16774546598155382 0.5523536646783966 2040870
0.07359205340509511 -0.04739118134257403 0.446759562965118 1382682
-0.10987054071919156 0.05331750596822804 0.21871179470459068 1382682
0.11715866805690567 0.2059342507405959 -0.130463923132508 790029
-0.04386888364919006 0.0014236004882839381 -0.30941174416209827 593166
-0.06302661986827518 0.19341163828637065 0.5793942592801091 3222819
0.1322081221319955 -0.12073277350665412 0.23138186285389328 592137
-0.11810222506058343 0.04448652332905878 0.1511623242048944 1251098
-0.06204025395860935 -0.08490770014335336 -0.22384752192824586 790545
-0.07366817581933471 0.1342483797825924 0.00924942644253568 1053201
-0.05957695039463662 0.15258014590270008 -0.016946902124789887 921615
-0.057802666825813365 0.16162853786918507 0.003917874717767056 1118737
-0.06803969835017343 0.10222789154534428 0.5892762143007293 2040096
-0.03273404085146536 -0.27776685185888295 0.30433148356975703 1711904
0.12318433637082382 0.007389962260335725 0.8182500298849429 1052688
-0.06586364996151683 0.1509465349021868 0.16194293198470944 1118997
-0.03642723239716883 -0.24604455469308784 0.48865936141953226 2895407
-0.2067873849361046 0.046756707783642604 0.5176423417173475 7698551
-0.051036644751178084 0.13312140130684424 0.20626126027160052 1250580
-0.0771871035191114 0.11826965914621779 0.2655422876872815 1184533
0.01951684850798907 0.21878492309555764 0.32861217052175906 461579
0.1760428589033589 0.14782944538500953 -0.595536669992099 1250326
0.12738968646323867 0.13549578463950018 0.16769320349391426 6316639
0.1035930293952747 -0.11098060593582826 0.7554691266060771 921102
0.07857094757318617 0.07538732241978785 0.3612617430325753 790289
-0.07389539353009278 -0.11210500601042073 -0.025949850204488367 1777440
-0.13040057451624687 0.13086100897324116 0.6111669856404833 789772
0.08452955953709917 -0.008218153106487769 0.789400103298288 1052944
0.022249640605427334 -0.1921201414286906 0.5182875789939667 2106663
0.11947386405383797 0.055889484498738096 0.3686301025588097 4869709
0.19988146257674666 0.0802001444040994 0.33118877991479967 7507116
-0.1540204811125614 0.0455400827593655 0.6155787890897557 4276543
0.03703149722435839 0.048316116439815815 0.5231045470442441 1513495
-0.08972156631985317 0.09583600776627943 -0.07852509335260671 1316891
-0.08407271405082462 0.10612369964226609 -0.02568441576327718 1052947
0.14289962193057537 -0.10232568923838592 0.27195714681108063 1381653
-0.09765961986427119 0.10765056096033021 0.035405236858306655 1184533
-0.023697168003312452 -0.02104802944369455 -0.41151095048878034 395787
-0.05957663433246996 -0.13167237943098398 -0.17553245445918175 1053716
-0.0626936384573602 0.0744263944997372 0.605652414117863 1513240
-0.03621609102926149 -0.1504462547443297 0.6384278279601967 2500647
-0.03578014917760175 -0.1008637026087178 -0.24600310795585378 987926
0.15329146950945827 -0.07438732301138495 0.6683632781495932 8478800
-0.1695187355094978 -0.09392823217885216 0.3338897593120871 1251098
0.0899229705307869 0.021982188291530314 0.7335480473067675 1052943
-0.1530278602757984 0.16167501425526654 0.48076099607655753 5000779
-0.12365384765461318 -0.03958543997348052 0.18959270634177927 1514268
0.1299389843553227 0.14861382850613003 -0.46884264202942316 658957
0.18372208423821634 0.010749050762293155 0.2896591426810535 8285285
-0.04715616194828165 -0.10752953534625309 0.1446388102872309 1514527
-0.03261489471809531 -0.16314524069516922 0.570802896288122 1974820
-0.026583664001747387 -0.025275919667763436 -0.36620227203902167 724752
0.025715780289864654 -0.0037845958838764737 0.7621706030204252 1315608
0.17353693024143135 -0.01713588929303178 0.28829623185161757 9860960
-0.031253363349486474 0.10544428033482056 0.6095642264796675 1447959
-0.11887161414662373 0.07866392953941226 -0.04328311438634258 1119770
0.038428517039566845 0.01702545058586802 -0.36044660132935014 592650
-0.03267500134697965 -0.13161739088360225 -0.4161792248147147 7368815
-0.12436111789908022 -0.0417926865758429 0.6005705985471415 1381910
-0.03489398204491456 -0.09751349422424482 -0.15829276672793324 856338
0.05248186513642272 -0.13100639427427785 0.3076654572149571 856081
0.12983031894669184 -0.10837184751887818 0.801620909907452 1842975
0.030920849481412382 0.1294648861678822 0.4890052750969285 461065
-0.02802813521698644 0.013674609174890051 0.598594280547585 12289116
-0.08304418358553178 0.13460924151224507 0.18832479694544735 1185303
-0.03298823174742482 0.25359523426832764 0.27699662226001753 1251098
0.03568687738258758 0.19777518003284245 0.10359270710135227 3355954
0.1347726798475195 0.13923560045767225 -0.2314326645128576 922131
0.053864397432804356 -0.09113759511021957 -0.05921805515997525 1514270
-0.06188565938883883 0.1317415264492645 0.6304838184099844 2171685
0.14375466820251015 -0.13378915263977342 0.28940698207606275 2764079
-0.11758302160926837 -0.046640062238720414 -0.018708598960682665 1185303
0.20884209046925983 0.04526441969026607 0.28275518796471455 3355969
-0.04725027460726405 -0.08893196923883018 -0.5796030591464929 1513498
-0.16470030260807755 -0.057055106367385644 0.17605242477640526 1251096
-0.04814254581147104 -0.0820122878089724 -0.5051672314335891 1053717
0.0055801523298648625 -0.06449310713660106 0.7594295284398112 1974303
-0.04079324394582917 -0.030106420870168016 -0.4420659948142751 921100
-0.06242357120405728 0.15112704458951498 0.13029467517543503 987924
0.1370123182119789 0.17046910487326938 -0.22731255548268936 1053717
-0.02499052997462714 -0.04119886360516922 0.5986510346776552 14983794
-0.11839731507038742 0.04300840035320519 0.010237023259555889 1316891
-0.007761356282275145 0.15899879611728096 0.5702157664391334 855822
