# .PCD v0.7 - Point Cloud Data file format
VERSION 0.7
FIELDS x y z rgb
SIZE 4 4 4 4
TYPE F F F U
COUNT 1 1 1 1
WIDTH 700
HEIGHT 1
VIEWPOINT 0 0 0 1 0 0 0
POINTS 700
DATA ascii
-0.01394348053587402 0.2348383912368459 0.08724939193106507 856598
-0.092096067777522 0.2276872701324124 0.04482898066110719 856339
-0.13808604492371668 0.2198778309100322 0.0008415469637206296 987924
0.09493805702134095 0.28117211628581984 0.2566770225673176 856598
0.07243190980820646 0.28059914695242805 0.251953465669551 1382942
0.027356886743408637 0.24819772363973813 0.11556772813067484 6776938
0.02093161339522087 0.25180672229576384 0.08749494506889399 10461085
-0.002951448957967173 0.2447194692492003 0.0462566294738439 3355702
-0.06480197064662407 0.24347925283403238 0.03514516048936245 2434854
-0.08268823874812892 0.2416179004255654 0.02353019771328646 4145218
-0.10092811208657082 0.23833012260657194 0.003916120064783035 1118740
-0.14839928899284427 0.22199693296804135 -0.038459278265030594 1119509
0.11759064320513168 0.28727717548251475 0.2027095507544534 1448736
0.08620922828487565 0.2871753868902951 0.19969886552206528 1514272
0.059197487654170544 0.28495184818072494 0.23094627606488727 987669
0.04558849294200673 0.28077100938516275 0.20644683495956473 11842739
0.12163401723377643 0.30613895269118885 0.11362909115267517 10527393
-0.14686695196879018 -0.2032023916975425 0.5331823880985858 1977147
-0.14419798562009456 -0.19258064580221168 0.6277850229431703 2634038
-0.1637952148207269 -0.0458489309607778 0.6351963647443717 1517364
0.17700557505056658 0.04588542447873478 0.6390511813166508 6447968
-0.14439804320411165 0.11253290916978664 0.40448714218066706 1055008
-0.031920849774511595 -0.2357038008346226 0.5027995909105281 1187885
-0.03588716737777187 -0.22554201251425654 0.5327300378094788 1714486
-0.2327110367298988 -0.1390313656981641 0.5014752534821356 9541524
-0.05752029492818256 -0.17811566302323445 -0.03994889156390402 659992
-0.19932455342887323 0.0770837221346321 0.5954216860610855 1383462
-0.1961569072004341 0.05851189753044994 0.6362751349117484 1449774
-0.04703176706697043 -0.05622799959476876 -0.3371036207299696 1382684
-0.12234715369959126 -0.04691194310450886 -0.3016085101300592 1316891
-0.14798376297243188 0.039085325585699326 0.6687390821138186 2241091
-0.15159094500240622 -0.18003146881631715 0.555873471920959 1648437
-0.04559579675988168 0.05322291608084306 -0.38673423817057895 2106152
-0.08678782235187388 -0.08127646419863 -0.3541929051607462 987926
0.02478850078363548 -0.19571453008892192 -0.07003747003573013 988958
-0.08085566322615811 -0.26357626141469304 -0.03759903869789383 3224635
-0.08413024075421394 -0.24200716466287764 -0.036387591291101806 1054236
-0.039264272737628225 -0.19377393700342482 0.021218634368766143 1514019
0.027469989607008305 -0.11423273947864143 0.11798810501838575 5001036
0.18021034514953982 0.02061336426911331 0.34080538437876995 989217
0.1800517312301988 0.034672462776265345 0.3401731096283156 922909
0.12025362079753332 0.14510184370688162 0.24833146233946213 132617
0.11558896379207395 0.18296553267665727 0.24034138253933213 528149
0.13052871526614096 0.20569639560609976 0.2618660726040747 857629
0.14047451216475482 0.22046729670020282 0.27620585192481273 922909
0.14917388614585558 0.23961975960585202 0.29204988884739214 1449508
0.12811991194357653 0.27315832918726946 0.2571788219093796 922907
0.12367373389524072 0.31238639689423575 0.24868295936464024 8224377
-0.06690775196608056 -0.26238292031641497 -0.04932729559784754 4804179
-0.06577981365517038 -0.2339597742717806 -0.04125805254756465 1251103
-0.05518367617870501 -0.20500532732028764 -0.04164343532501802 989470
0.02093668268164217 -0.13814931887081772 0.08388487897307051 1315860
0.15169890883415027 0.09226495434404702 0.28913793307783275 396563
0.13087005785035677 0.12515136139120275 0.2570923164866947 330513
0.11746365871010322 0.1519540369180714 0.23251909379173408 1030
0.09881654795898509 0.17424273388701428 0.19218254898615217 1031
0.1093145789363219 0.19003335875010707 0.20754653771345555 659735
0.12839541585668357 0.20539010023972226 0.23585977211936826 1055008
0.1382049397535159 0.22043790464307222 0.2502076044181889 1054495
0.14719332540604135 0.24754810202803146 0.26307964303847187 1251873
0.1443295221723977 0.2646106468038909 0.24858708108913596 1120545
0.1325112237143058 0.28188624590301603 0.2398379006209248 725528
0.02459342368143691 -0.14286595353962306 0.06373575253477248 1184273
0.038969678431039156 -0.09679100653230077 0.08437274664590255 11580077
0.09726056339012867 -0.033596623759444944 0.1717551455403663 4344397
0.1536010151970464 -0.005992268859260408 0.2572173140804064 1055267
0.15259376297311267 0.09982860103842972 0.2639886810727461 462357
0.12160020787431414 0.20513517752430865 0.2018758817341293 989215
0.14233093003252373 0.22021474058602997 0.23317449348099184 923422
0.12697691975140968 0.3043001337021758 0.22604682650385 3093042
-0.06407659843517122 -0.2390006658040128 -0.07229296023686116 5719881
-0.06733086130313115 -0.22441490373813666 -0.10348181820104463 8741730
-0.030195706157380542 -0.19308538403253073 -0.0417377583823636 2303273
-0.0029399702450958465 -0.1686923909302972 0.02218779311253538 855567
0.020237251275033508 -0.14168030137847243 0.030277184410653746 1118994
0.021519349849208336 -0.12410870533241192 0.03173008851053383 1579030
0.027977137330056134 -0.1051219253016411 0.04119614265970384 9078654
0.1887130956593035 0.034338673277883425 0.2871011733835842 725529
0.17706365225938914 0.0645769840242505 0.2909520515026718 462098
0.16932131747073864 0.08454509869923843 0.2670047712637684 593942
0.16284707496974393 0.09778421782193503 0.2448758636587398 396563
0.1185230506940691 0.15019348757807482 0.19870566300693682 773
0.1092131804034806 0.1836469916704524 0.16703254951389757 198922
0.13913442193174452 0.22020613486909402 0.20418046038150384 923422
0.14832032837812292 0.24311109156172672 0.22974059075760533 857371
0.14328988181789404 0.2723122181285622 0.22653227925879382 922907
0.13972685778653693 0.3066051501110736 0.20243322398675456 3553851
-5.179603350979889e-05 -0.1766746712571493 -0.02864035903085671 1778469
0.0032409866000779886 -0.11762299611695737 -0.025026930061640584 3682329
0.03252761987345121 -0.0920313256795694 0.020507445474815533 10920836
0.1785273488999093 0.00680668153283559 0.24842066364458515 989728
0.18633159967669455 0.0307371064552604 0.2600097112806161 922908
0.1708139225604146 0.08890179631892403 0.23359909879293683 725528
0.1407079887666045 0.1257739071773043 0.19720353028537652 198667
0.12371238720032629 0.15652860946021008 0.1695842377175425 263431
0.11365705472600851 0.1800480162410325 0.1402396390420928 132101
0.12737535300062586 0.2045118504620329 0.17382009385043728 726043
0.1507936697128045 0.27908419527142203 0.1996842859437724 2765109
-0.05448812034858763 -0.03284376058865757 -0.21733706955044862 4344129
0.024287648610702206 -0.1528013298021611 -0.019051555466407688 328967
0.14443392602486504 -0.03548324370057987 0.1704633933469717 9935770
0.12467578910386568 0.20397516233861746 0.13080463052322422 528662
0.14239618969994794 0.21994767864806875 0.1716453552964441 923422
0.1543288859337717 0.24593803025231176 0.1941042620566884 857628
0.14628082080095872 0.305948035893191 0.17491294857236195 4540490
0.02621944085386474 -0.1450853332939368 -0.03250338373133288 5923679
-0.006382178488959944 -0.13229777601136083 -0.09938719667749929 8814434
0.13702324561440538 -0.04173678911937784 0.13232457185394786 12369082
0.18712462895322357 0.013819772337390734 0.22921955506543124 988958
0.19632043412741051 0.06416981838602487 0.22581948986400935 594457
0.1756110233249557 0.09371300390697801 0.20368951117775103 726043
0.1467026083538916 0.13163999009969385 0.1685658894848241 264204
0.13790358219271592 0.15467457221409298 0.14045258999111354 132616
0.12222165178959088 0.17014474590741768 0.10092314798002211 1029
0.11645491977425193 0.18178973722863323 0.10925979370857897 132616
0.12344284168877895 0.2035918463997919 0.10179073201428346 726041
0.1588755867819147 0.24076289577558296 0.1672695850591921 857629
0.15857810063335664 0.2727026121629057 0.1744412166602729 791323
0.14712316283133653 0.30162165480970016 0.13724207842280833 856600
0.0860523947064058 -0.10358207345498993 -0.06382298187337931 11845563
0.18536942506994603 0.006691913540750161 0.19686426782397604 1186082
0.19666393793356418 0.061434846916069485 0.20073742919288406 726043
0.1530025821951666 0.12956970486949304 0.13921913285512 330255
0.14193516274898732 0.15295917590385577 0.1063750469909297 461840
0.12936171905564597 0.16931425156338697 0.08485910504778205 66824
0.12099657008888487 0.18615311733151652 0.07033666104335601 775
0.16589202851182572 0.25162127134084367 0.14284189514506873 923422
0.16648736813635168 0.2679269943589129 0.14326484914554438 988702
-0.11991142042563263 -0.22479524745535784 0.49963165804375276 1846074
0.18615163486017217 -0.0002816852283085147 0.1675010359132998 923419
0.19575563500775406 0.05841868338702749 0.17265336034670797 791836
0.17831245398555717 0.09853965602302539 0.1687893119146331 528150
0.15414922878055393 0.12794869902532646 0.11366179452734027 330256
0.12745711390086 0.1854642344651054 0.05227912112346056 1031
0.16694369672312703 0.2520150347232175 0.11683754163496207 1055008
0.16637609612808157 0.2686891331683672 0.11527540371228362 922909
0.1968695118731123 0.03144614405262258 0.147934509161342 923165
0.1977616609107109 0.06379433323252726 0.14827481072853943 659994
0.1794176407894046 0.09529051211595174 0.12968494523194174 527636
0.1574659689136393 0.12897814058516643 0.08599520974967811 396563
0.1554785813610584 0.32192713136128415 0.06570414812826098 3816505
0.1969951361990172 0.010500062721799042 0.1112278181993609 791323
0.1974057559881235 0.05258702649194813 0.11947376168564694 791834
0.17802289156335993 0.0927550295668651 0.09861484587698732 462099
0.1713160236061979 0.2524542288789886 0.08081385811842068 988957
0.17135899417421196 0.26945560113588085 0.08025741982319079 922908
0.15786798696956428 0.3058864411153057 0.04026395960671447 987673
0.1664045002427046 0.3221729171207166 0.05465056679822489 7631986
0.1984981648795796 -0.014796507472745413 0.1092046763223915 922644
0.19651400094439664 0.04087284128266866 0.0886614761307628 726043
0.1820600357467166 0.09073852649272451 0.0760334277088951 593942
0.1832928080212457 0.09815080483618321 0.06271605388931656 593942
0.17037447035861364 0.1237400120849379 0.05394746794893934 528149
0.19924305785484542 0.0039106744779338065 0.08484743494071056 989214
0.1721664081446299 0.14738435446652876 0.009039864725015612 592913
0.17286667774990416 0.2709982024110935 0.02126904434274557 988444
0.16437708110343996 0.30814549170005656 -0.011728909110404029 6447453
-0.1554451010503084 -0.11308359611993835 0.656925402618902 2175039
0.20124286044412898 0.004999835811076103 0.04534998040239524 857115
0.19967469667246895 0.03386191083790213 0.0532829338424855 791579
0.20321474119611915 0.06712119851176057 0.01720129336297227 1053978
0.17241921910246294 0.15551490090158238 -0.0072548595779394764 658704
0.15367506639698103 0.19088314797987982 -0.06025380800590996 2237215
0.17639091597278922 0.28369379601426314 -0.010762092947417146 3093299
0.20332904229429838 0.0330716384598122 0.022399295385039375 922907
0.1979981179037349 0.10112743481768893 -0.007306515275726122 987927
0.16397972162656682 0.16238220951741034 -0.0745560728388368 1053717
0.1317168073088708 0.19976258667540514 -0.13743662026535985 789514
0.15708856695344497 0.21828807964705765 -0.09006608611382982 66306
0.15462529373305545 0.2371685474941445 -0.09556233890251686 131586
0.1717099725701794 0.273368684872886 -0.06469361637106763 9670793
0.06913945790908471 0.057762931525917605 -0.41209839083147815 988184
0.21192887568122565 0.008850508279270253 -0.006101606495916734 725785
0.20174345862858578 0.03887956758602118 -0.005570172754426617 725786
0.20281277572823742 0.0655625243764224 -0.010226968040213391 988442
-0.014864746080649027 0.1344993131164276 -0.3822355625168177 726043
0.21297371552963806 0.007758531955183168 -0.03383728238462669 726043
0.2067964711473289 0.03357931160773364 -0.04154103911693974 726043
0.21790825990508278 0.06203559278581827 -0.036940076165735136 922904
0.19518231143999953 0.12358610701635264 -0.08473291846492881 987926
0.2217212356708469 0.06836998857786947 -0.06630461790016162 988183
0.21128284463097913 0.09608706696752023 -0.07002853722099378 1119256
0.12242823180430173 0.1363189049546849 -0.2700928954428097 2631979
0.22973259086935194 0.03793222960555531 -0.06113886315625361 791575
0.21651334382615417 0.09395028763966806 -0.09712078915639155 1053719
0.16215440870034215 0.11657957249528472 -0.22979790791267085 1053719
-0.11973784133520793 -0.16905068262331813 0.6449220739540786 3293263
0.2384720067142898 0.04037881486039585 -0.09446487192543762 2040871
0.2335736450402246 0.06503575191922417 -0.09946424442304691 1448477
0.21316844393025036 0.07962251883578952 -0.1630011508446534 1119512
0.1554605856886977 0.0929476081340046 -0.2854005511074431 1053719
0.05039043704883017 0.10490741043442653 -0.5076279646248674 790545
0.1186694570224649 -0.024762150519378245 0.22789595931078854 2698802
0.20167020797750013 0.05484610990262828 -0.22861257864605622 1514270
0.15219844412242534 0.06842793838355377 -0.33604222710205267 1251098
0.1344758653651419 -0.0174405689694771 0.2740224574420276 1843493
0.1414403575732215 0.03257720153425758 -0.5069838069159638 1645084
0.08090178495335199 0.03212674542646732 -0.4499532633000163 1382941
0.09231945220986004 -0.1154070157809467 0.853904886934324 2500134
-0.14027278152836775 -0.247364256459077 0.20612870474942957 1319987
0.030995027674386666 -0.2044761350038945 0.8277079511988348 1776410
-0.17999091848306703 -0.022668607897592397 0.6298036950187103 1648695
0.0018113650053130925 -0.02734678104445809 0.705744516257067 3287845
-0.10053945370328066 0.16908835171485226 0.4050697383649724 857629
-0.09046795972454635 0.15676678409629963 0.468202236428902 594199
-0.21049464683637087 0.15694405738559825 0.0436621102537853 1448477
0.19460541425171485 0.1255881363080802 -0.04966527197727433 987926
-0.12134431539102009 0.004594903746593992 0.6577463587386327 1450800
-0.15113528713323499 -0.08314685921010201 0.6706153328305005 2373448
0.19014951355997978 0.04176013622375585 0.22901705779954673 857626
0.19158990273649623 0.03723934044298516 0.19312887325989925 923422
0.1885495224321252 0.07725060045948817 0.19969179148444316 726299
-0.05795588672897711 0.22235728147246725 0.10930819573954764 725011
0.17018010616544732 -0.020135546368105217 0.17273300457736562 1317922
0.16237727517186684 -0.008320104317512067 0.11779722865271713 856346
0.181016250831036 0.029399484613967797 0.06968920791794697 528150
0.028509900635242058 -0.20593689028241324 0.11065097312633698 2174521
0.19379715682377086 0.06559157091688839 0.08281885618471563 594455
-0.11372452388969512 0.004025884648106048 -0.4548162543779086 724752
0.09734029947988798 -0.040808764316787816 0.21958331246254614 14015190
0.07966833218748892 -0.07122321979056068 -0.08954689765603341 10137512
-0.006708624364333726 0.005517054897745677 -0.29913875008871726 1843235
0.03905904488071332 0.025438970944796635 -0.3446334850608115 1974566
0.11011004764785692 0.0266105314033227 -0.4430232673209744 988183
0.11745010188064109 -0.013261543499539452 -0.4321284606366884 1580063
0.13948235792448038 0.041182465782220845 -0.40971464779661027 1514270
0.09322109325985073 0.09589068411095392 0.6248525996917591 1450540
-0.2050799608764695 -0.08144683599314084 0.6114469641225206 4410706
0.08443076913542047 0.09651152980701183 0.6455094409474522 1186594
-0.028987428020934125 -0.19208843850558666 -0.008426836453355846 988701
-0.09005497819283725 -0.23583847733341212 0.048242365052298064 3884106
-0.09077454556761566 -0.2280155551259856 0.4416505731754379 1253420
-0.115518372661227 0.15839814047796041 0.3671281592868869 857629
-0.03440001300946882 0.19688289484413724 0.34916119449826266 527891
-0.04330478054550824 0.19367633634724135 0.3925038539208128 790807
-0.023154686159228 0.1992003983141144 0.4139745238825263 725270
-0.03828260872445455 0.19236178364571188 0.43975224958660286 659477
-0.20437160009267386 -0.29840016504814504 0.08522286543917001 3224888
-0.12174312512049434 -0.23299130423005854 0.47496071520317185 1714487
0.06167701478367649 0.26857232137287035 -0.018345209976669663 12237496
-0.11666869112947875 0.0823114706832353 -0.3679753523231204 2896181
-0.0943973416254229 0.08158895907267749 -0.369391380409112 2698544
-0.07314036905030452 0.054486011492881126 -0.4203892508591305 2764595
0.11383684550333761 0.2981430909689813 0.053343108165542885 8817033
0.1333860008880272 0.27566213289812014 0.027796548747042182 3552830
0.15007772899767335 0.2549331832539936 -0.010520560395604894 9473933
0.017178815162009364 0.15494282599970344 -0.19455916440589172 2698801
-0.08410773377562508 0.06987603103454676 -0.37118475901332637 2632751
-0.05589309131902809 0.03408893606054586 -0.3997212637291361 2500908
-0.05118210875435958 0.030988958654900145 -0.4230617736188642 3488058
-0.012059501307390086 0.025794451683612163 -0.4327933728723794 3093302
0.12104269480270213 0.29763036709684965 0.08397691706942256 3949127
0.13160807626166093 0.2850419449584256 0.0765983566809556 3027769
0.15189586201488803 0.2753967451189532 0.048390758088307506 2304048
-0.08068115624851258 0.06894970850302551 -0.3333164399292503 2698801
-0.0773489124055744 0.04732682139190936 -0.35329773262187647 2698544
-0.04362705016933388 0.053087723254200636 -0.34301629582013904 2698544
0.05049221824239325 0.04032318505100285 -0.3666034371265541 3027509
-0.01700777661785491 0.08436907218771639 -0.24958511989452692 2830387
0.07212960571043237 0.09718410069873573 -0.22727900206997131 2764337
0.001984174780690573 0.047141472100561854 -0.3064252128430014 2172200
0.04889139732415693 0.05838009089146201 -0.29625357768805616 2764337
0.06288705677697903 0.03989239013294066 -0.32926114865839606 2895923
-0.003914573473098315 -0.0434552680400202 -0.4773145699867749 3356732
0.15095097483177167 0.27418558237730184 0.08203326427975899 2435889
0.16550941482111714 0.21914229919420158 0.020639218782531055 5854296
0.17186254891247188 0.2179425975817273 -0.004907106182736376 3355958
0.16655923013761775 0.19897286581889784 -0.014673415596445416 2239020
0.20543813239302455 0.14796521306894794 -0.10422369387926289 2698544
0.15974224747388366 0.30716213231026956 0.01227774307094287 1118740
0.1475833356550833 0.27359259859573215 0.11006803823660471 2304560
0.1618822503664692 0.24025823728576778 0.08010775527116154 2370354
0.1501566625616415 0.21327579644989836 0.020787777915912464 1909546
0.12324414065441447 0.15525081807356922 -0.07465570848716108 2567215
0.03047396654272072 0.0824527619916322 -0.18338578471703149 2567215
0.18917274304707554 0.11820752259265133 -0.13506513991358338 2040614
0.15569365066398433 0.27652483873393696 0.018826689456443724 4079428
0.14949382806866707 0.27471398471178565 0.14275254024531625 1909802
0.15856074462652492 0.24477872104872067 0.1078362971682929 2239024
0.150429213170733 0.21356660156259522 0.052765280257450975 2304818
0.14753740639405244 0.1684648104907689 -0.0056746963451161925 2173228
0.12382746301507552 0.13888110368226259 -0.05553938805678027 2567986
0.06557773459566496 0.03258585434402095 -0.22002587520243388 1974822
0.19158713473008682 0.09559927800467283 -0.1293815077592948 2961714
0.03919218168570282 -0.018915640778495946 -0.3368627855609996 2632749
-0.021323659957324992 -0.07654485934622324 -0.4188882619505305 3289658
0.15781080103506273 0.24319658227412466 0.13544082438838478 2370354
0.1495908887828925 0.2114078950974898 0.07788095399799788 1712678
0.13478162040843245 0.15954627916122788 0.00916380417131113 2633779
0.13503583843541023 0.14893559166452075 -0.008505259260733533 2502193
0.10140360264443249 0.10761682955828045 -0.07697862209510098 2567986
0.07130502437340036 0.07865683335619833 -0.12490863429408328 2567986
0.1528736431797344 0.22065826171040115 0.1343777189869867 2238769
0.1552076664804174 0.21863378756679808 0.10524846750065886 2436403
0.14766682764485362 0.15531853955456598 0.0198614868965169 1251356
0.1493369714940278 0.1377289040982259 -0.007674924907199454 2436400
0.11264669432533747 0.08369809505265913 -0.08603734210944292 2567216
-0.03569606508641554 -0.0706636105776628 -0.3373935803577126 3159353
0.14974406418583497 0.18238952559480626 0.08444514899775102 2896697
0.14618626270871404 0.15623901754685754 0.05381495628390409 856599
0.13220526284114653 0.1527554342788544 0.041053610780339644 2633266
0.029671140810692886 -0.026162435947110874 -0.2227975702474586 2172456
-0.11092458324306342 -0.11002707878315054 -0.3660598307967029 2896180
0.1424412401291293 0.1584138977036773 0.0792101476815058 856855
0.13865470134949032 0.14078216189438675 0.06306434055534726 2370607
0.1338073509092128 0.12539990491180042 0.024871863521412796 2369837
0.14821594950575978 0.12200283351592534 0.014593189525610062 2435630
0.15844238601994043 0.10869397282981619 0.011878064121981335 2501423
0.1861864698533231 0.0907605099663844 -0.016930381248982274 2567986
-0.013220734471541373 0.1999900067461382 0.3620194963502614 593426
0.004493233642925976 -0.2229777344657632 0.802753412611352 1513238
0.12209022758283261 0.1938506363911756 0.5066956747412192 1581867
-0.1807684014385793 0.06918701540810557 0.6271881588536397 8290947
-0.17598907025618882 0.08945388339395577 0.6222678581270042 3291454
0.03272914384477943 -0.20405403430093605 0.19757702963147317 2042681
-0.05976475530078584 0.18082775806482898 0.4705458650367791 594199
-0.05329397816092207 -0.11892772049477784 -0.014580720880246423 7108728
0.030834042348252044 -0.1923857890402776 -0.02240692909851516 792087
0.08197814347284949 0.29652814914724823 0.03414750024255775 11579568
0.1334223117552491 0.12719414831242215 0.04155341016213021 2369837
0.19369873200723697 0.03430236319830504 0.1700331601275491 923419
-0.12070200613575999 -0.022792999430731098 0.6903327015146141 2175556
0.17829532927419267 -0.01529124876319432 0.1009628483749131 659738
0.1893561051697925 0.06767190756917185 0.020157955760236823 659736
0.20630106727460307 0.0956078983711337 -0.03750393732732882 790549
-0.01366748682816743 0.16616036949611512 0.569670824257638 528149
0.013048414706815947 -0.15957692910146282 0.09787069581525354 723984
0.05626894970195018 0.06764665669202041 -0.1592164063651672 2698801
0.08427040904939664 -0.08934986458183147 0.8526316030066274 1250067
0.060886588629933236 -0.05712459308549289 -0.18649584004583253 1184533
0.08730726115523613 0.1272109531008565 -0.1835118989328035 1843493
0.05072699552444959 -0.015232355382315488 -0.30723040465297613 2368810
0.1149290631342339 0.05209763351816221 0.6415103913930897 264460
0.08611452312594725 -0.003292981335571765 -0.4692514881561878 1580321
0.11689758801487482 -0.04132306000692498 -0.30590830993464735 2435117
0.06217832235840781 -0.019063833144729703 -0.018287407193793515 8491409
0.174198604506846 0.037378803712363906 0.5233963425291603 15659247
0.1435581648206572 -0.03098382366388408 -0.2893267012548979 1908773
0.12208026764873692 0.04693214371705534 0.6248925431345764 1252130
-0.0019027989932594025 0.114438786655646 0.6727944339589225 922650
0.0757931997051493 0.1272978960989266 -0.13951991201103264 2633008
0.005850727321704774 -0.05206243443081826 -0.34192804035192603 3421498
-0.08968132796780548 0.09681716266023277 0.6697297870293708 1780020
0.02317079163846536 -0.13996968755463768 0.11233592492683364 1711129
0.1097084014955163 -0.03571631146179288 -0.026679557453415326 10991030
-0.11927593285576421 0.22394040177492514 0.023420538173639427 790545
0.06297168289236144 -0.08040558615899518 0.16970774349872952 13687254
0.08523406527961042 -0.054616261974423264 0.17026732911850484 13620946
0.09415355819190685 -0.007807874498948819 -0.43808188592479524 1448475
0.11844434782340318 -0.014028593858175453 -0.13166339003511118 856085
0.08827530268752337 0.12443265220431687 0.6167487978249213 1450284
0.01822151256165183 0.2223225434827394 0.3344570475820665 593426
0.18102528460604006 -0.05672911151345161 -0.030761584597492453 5199692
-0.0010279523233149845 -0.23163160266204685 -0.04903431133727176 1055006
-0.0007578859547026084 0.060491706746050866 -0.2559404475175051 2501422
0.044700516134620116 -0.03275038462565716 -0.3127460780144544 2105638
-0.09636991446190368 -0.00833277936191923 -0.299618111083515 724750
-0.13736442552710182 0.20911933042233266 0.03889098367188404 725011
-0.07672311915269026 0.06560776764388088 -0.3994755449152203 2633009
-0.013955386421993232 -0.20076188589851351 -0.11538677059757707 1120801
0.029030564315758234 -0.23001038853138045 -0.057231242102163016 1120288
-0.09447232303672148 0.0976371446433959 0.6414911265285475 3884365
0.01700863930584795 0.005205642459821025 0.6974251081464218 1120287
-0.013200973057638343 -0.003993945201620885 -0.24048229594052373 921361
0.09769965000532821 0.08371411794655392 -0.4544053714261036 921878
-0.14582101052997798 -0.13920102424649172 0.6503885706657517 3425108
0.14471542152278705 0.21622499629852077 -0.045729969581059904 1382945
-0.2154332466980602 -0.25812527434780375 0.30046482896697624 2174773
0.11748099243551824 0.06636250665007459 0.6179804294865514 1384489
-0.23865211127056618 0.09740806700209403 0.1501656163424845 1842212
0.191012063291903 0.04993283188859943 -0.12210822556051149 528149
0.21779723662840933 0.0028695299390708584 -0.09279414519977336 397078
0.05419677585836169 -0.03776901178728531 0.6810224959908782 8677724
0.14733405262309507 0.3112637821062041 0.10973302221278214 2566957
0.0006910585820092408 0.12310329144947785 0.6546057473509856 4672333
-0.09370899823688905 -0.05171341767794335 0.6924022129565586 2569541
0.02792992862039645 0.21805582106351884 0.49920162654656863 528149
-0.06015920412798792 -0.17423230014698643 0.5921505048784581 1253417
-0.19345044738898043 0.06529877491928149 0.32808949764892326 923935
0.08090401159538896 -0.04242333803500187 0.04862067045682528 10795193
-0.1782935245263091 -0.14439924575721397 0.6517637873033093 3095623
-0.031804103605029166 -0.07857257221424963 -0.5336052067624348 1185305
-0.15080640677379664 0.17326677053185424 0.18738658614074244 725782
-0.08284727141102932 -0.057574997559470154 0.6962919905052971 2437698
0.09579576029226011 -0.0052393648572235385 -0.3369574965555082 2172200
0.069310645011595 -0.06364385726286992 -0.13795339106150095 330757
0.058580489788433 0.24490710620776945 0.433587253914381 593942
-0.05938213515532187 -0.024636066753083496 0.6738748092472564 1252645
0.1584543487714294 0.14017711664615717 -0.15813724181118927 856338
-0.0861026503003326 -0.23309454520397255 0.392212841961346 858142
0.05411208816288404 0.003803894258449292 -0.30453675087250254 2171431
0.03805465120190954 0.17400404511178125 -0.12632770765084578 1514528
-0.17182763849955496 -0.3023493732758109 0.05473116638971276 1449510
0.12435720858421462 0.041011022910088846 -0.0951726993368538 2699572
-0.061945099775305934 -0.08489239770000112 0.6810354808288253 2370353
-0.14916439614460275 -0.0233293927864876 0.6797076966317404 1978431
-0.0693593084538282 0.20886641782531568 0.2732194230619265 790807
0.1437238486831376 0.11767788769699772 0.2304884333385957 462098
-0.015877472972273488 -0.11420973589625816 -0.17772515032462222 1185305
-0.09861384447587351 -0.26289883805671677 -0.009270536840936039 1053725
0.20491724893292584 0.005912549574407455 0.017651477626283274 593943
-0.0064774933653706235 0.14251130840506976 -0.39791086635703277 1120288
0.05311707675973221 0.082004767155055 -0.4571476828934533 987926
0.027312979527625902 0.04081661892555455 0.6591053351215095 2108989
0.0910699436772302 0.17134168037148134 -0.06905791572969577 2764084
-0.038962227113173764 -0.10870434078473068 -0.019164290640828807 8227977
0.13896955389219423 0.11456861443342836 0.25444015616156546 528151
-0.03809181090787206 -0.13918825459977657 0.6161067702728109 790545
-0.11461784855075896 -0.1232515304708226 -0.49883491646963796 1251355
0.07796100981707266 0.08545527572714118 0.6665772460016122 726043
-0.011958408533407905 -0.16795251808185307 -0.16113715058300537 856342
0.05086064781348032 -0.08849277370860809 0.12754376731873607 12041657
-0.030751881197442543 -0.16557540026096262 0.5536262268208458 922391
-0.0012460664181470626 0.15857442507496766 0.5895682991650688 725784
-0.005025191600423362 -0.16247414087764533 0.4868962566560251 1974303
-0.1359825615912169 0.20335764108476084 0.09695788476193012 790805
0.21584212129270774 0.0007269158730760505 -0.06282069432473025 858140
-0.00498391363784112 -0.17837782367849842 0.47272948865844455 3355959
-0.0066270506167072085 0.19520298504061007 -0.007808139503164835 726045
-0.047757406914607614 -0.1861197826985017 -0.023760576143849965 397591
0.04202763643960683 -0.18113727740044094 0.3174288023748151 1515561
-0.005442833723344975 -0.17714671126943138 -0.12711759739251827 791836
-0.08769382640384382 -0.17665229069055444 0.5923418512101759 1778995
-0.025407909513174953 0.06369903120631837 0.6707298468486798 1648179
0.11192700972587621 -0.20033223226548147 0.802842251390032 1250319
0.11313169779797505 -0.1142826900666819 0.8338956149116108 1907998
-0.028063254199960586 0.009666538276456249 0.6820910004480758 1252132
-0.09973041830622176 -0.017284272105585696 -0.2812952770397199 659211
-0.1653861035709392 -0.00949604956254746 -0.47138001902349735 1185305
-0.051326713744694 -0.05485133963673783 -0.21347534690741443 396037
0.09008068309471051 0.19441440113459274 0.5303205247143417 791577
-0.055768356258970364 0.059279924572453346 0.7000991710665523 1384748
0.029964393087684726 0.03863962115544317 0.6869589972969226 1845299
-0.15436994005620575 -0.3177144816170152 0.021161293871269082 1383203
-0.19490547332723773 -0.13282876106308283 0.5873190937059367 1385260
-0.05408488974640102 0.2100865270505703 0.2790230454421163 856600
0.024188012672403225 -0.016188660967207058 -0.43263914666559256 2566958
0.0613908264294718 0.15905646317811484 0.5999629880399862 1449511
0.1232624033346621 0.0073071023142143865 -0.3012819909851665 1250843
-0.009969416965856404 0.030079363791605918 -0.5255846663716075 2435630
0.17805333841662918 0.23363143769725814 -0.08517275434514726 16777215
0.23252911361330098 -0.05216593052492702 0.0005863849856463377 659478
0.15798136527600626 0.07427556943511404 0.30630866277940916 396049
0.14565941923694536 0.04569424980151404 0.5631393426629778 988956
-0.10116087711308541 0.1300316980674161 0.4788027796032792 462613
-0.08865917095559483 0.12220929673708536 0.5846332100431733 461841
0.06362093287038117 -0.01790999533466886 -0.3893659557990614 2500910
-0.14033628365365525 0.11530673352841148 0.6201857760443392 791321
-0.1511404498423241 -0.08074398157441465 0.640612500085953 1714485
0.04524328273880407 -0.1987952751312374 0.25394725861447753 2240060
-0.22697144090783095 0.04650675714784702 0.29563142215224225 1252387
0.15909354974181333 0.10781267134117889 -0.14073903868980486 2830130
0.08686487871815896 -0.010672075202318942 -0.4695807186005472 1251096
-0.05899044329991021 0.21292647398139075 0.14599486572303988 593426
0.0035164191673051626 -0.05248950632594496 -0.3086913188188054 527373
0.07638700357881056 -0.035589040292546725 -0.19270902394586598 1514015
0.03963834637432084 0.24169703935116948 0.4190453080613703 791321
-0.119344511558229 0.11912756566593186 0.6275530548154951 4146247
0.08632411449901145 0.03324785690298193 0.674296657291485 1514272
0.027975988947870345 -0.029550020845586 0.8026408380374828 855306
0.08354737711675542 -0.16695713113475152 0.846002537885679 4144186
0.03696887305615082 -0.04580667979557784 0.7399043678664112 855561
0.09816904771683266 -0.05530287230895903 0.8046573177428562 1513239
0.022336273485669356 -0.02690369127188763 -0.1647662606756155 10202016
0.055304211967277084 0.043913427976092656 -0.5222935078119089 1645856
0.15186046687540067 0.04536062319598666 0.5994270720669976 922391
0.06190526822028586 -0.19502486703104105 0.22988056341042484 1911347
0.09489985214513341 -0.1761144560630583 0.8396962844103508 3552818
0.009373314062063542 -0.16415484083092602 0.851044741600778 2763304
-0.23182835267359758 -0.19469415163675707 0.42980034872772044 2503483
0.036496525006461056 0.23520981954021103 0.44938343249191437 726041
0.13725792079302712 0.23773124476611884 0.4052223776260435 3159869
0.12181090833441033 -0.03431748008358948 0.17261067902466065 8225925
-0.02447549097467494 -0.12127236430518717 0.8381840347187577 525831
0.037021642017159184 0.0011423645282482298 -0.21048948003761647 2303788
0.1709428994381792 -0.06087754729662054 -0.021995865453025232 9673614
0.07983871170154222 -0.17461415210651454 0.19986342480639596 2172206
0.020744261806286524 -0.08548032354999235 -0.12533565536640623 10067867
0.17758380836370735 -0.0230223058725042 0.048772455690850536 660250
-0.03210977277968219 0.1593526879865208 0.5676240573047258 462355
0.18245790318221955 0.07261074201256168 0.2281119558569369 594713
0.12421666948846832 -0.02263089839854382 0.11091882399775999 2963258
0.1840503665211295 -0.04471675953670884 -0.08516578768502847 790553
0.09161674303416767 -0.2169982026346472 0.7799339214426517 987147
0.1078247632714815 -0.03330740260089837 -0.5559362656809537 1711649
0.12965155235732606 -0.017681764993243032 -0.44527907446618054 1185563
0.06058279450912085 0.0653236534300714 0.6436193097994678 1977404
-0.13118902191642734 0.16045517928252262 0.32123290960673256 989215
-0.06097784704504505 0.18674340347048846 -0.03672523136393224 3818059
0.04646527758394292 0.1846834708597922 -0.05002464193634193 857114
0.009616237069929312 0.0004752237728926634 -0.17798199680474203 11385520
0.0562801353810185 -0.034309160258419125 0.8274093664719295 921101
-0.03106731683044739 -0.19281716981710317 -0.09659085580147497 1645601
0.17532202954472975 0.00588328695515794 0.2899277375131746 1055009
0.18466997448736322 0.016607426967855998 0.31516879626568994 923422
-0.07647699634044702 -0.23943335332257476 -0.05687743644619503 1120027
-0.23779724800973812 -0.21483288076139617 0.3929302785154116 8555921
0.06029544880762172 -0.079560506291805 0.09071553863234327 13422275
0.009569238845763994 -0.06234191566311931 -0.2474323257340313 658446
0.08812607812861639 -0.05309884891085048 0.8297156187277936 1250066
0.21286972529433656 0.10165739672673912 -0.12441046171940062 988183
0.0335894287329519 0.09807487297615136 0.664040929286644 1516593
0.09406369443946438 0.22522199313013624 0.46483530155973773 857372
0.07237867315385937 -0.0395176993421098 -0.07910851390991525 11321796
-0.018535967486639215 -0.15406259656190047 0.5539551265175193 5263440
-0.062336352368229875 0.18879725722591334 -0.4341417236496752 857376
-0.0792604872176974 -0.23219822191138195 -0.11627625004522768 2104097
0.18557186663269443 0.04203136372518568 0.022942310785640574 659994
0.152560269314586 -0.010036266000302607 -0.418891221244309 725011
-0.17814131055567017 0.005544218267512946 0.6593451394079146 2372935
0.12254201845661994 0.2977127086523117 0.1677176286502302 1316636
0.032094332346871646 0.010325398873153091 -0.5897168640433712 1514015
-0.051029754107765335 -0.10583725874333605 -0.2313585250820196 1448477
-0.09101825992194934 0.03315643187719686 0.6573275700502679 1582385
0.050761181705120784 -0.10281393343645817 -0.060269169647717336 8228751
-0.11569306139899016 0.07345667450459747 -0.34444844718941114 2698801
-0.05783163873808839 0.13361229317147738 0.5821852957903935 198667
-0.11573977999821228 0.1761037767974254 0.3240318682384189 857627
0.1976686396899785 0.2431081028296056 -0.009281158496067254 4145218
0.005373797578457129 0.11747870137963057 -0.4337692753450524 922391
-0.2300719678291432 0.06424003736136386 0.2557747542230355 1318429
0.1652699117223948 0.2552826204787835 -0.07613691268826872 7697522
0.05207954362669209 -0.0939484985758221 -0.07744147648232547 10333099
0.13109141257401768 0.23247258627118272 0.44081966321577637 1713197
-0.18983648230406303 -0.1562190948948663 0.5387019728440423 1451055
-0.06435857905221631 -0.25242486018064025 -0.069216486928942 10325390
-0.14796691854203914 -0.053383225317375715 0.6434847304739177 1583157
-0.0977406758144248 0.08519550791119457 -0.20994097335718598 1119257
0.08283738559040321 0.06190037482356048 -0.37023184826503835 2435116
0.03467951536817315 0.24210354533840173 0.12851792739196455 856340
0.022356214519860806 -0.15339864782692614 0.44516334387747536 3487027
-0.004144691593086058 0.21709023382357562 -0.059015058855928615 1382941
0.09825423809116662 0.13632494112114224 0.5933377172678158 1252904
0.10483279467638029 0.3064340315613123 0.11396845395197497 11974324
0.18025675940528219 0.006299445200077081 0.11229351748918182 725531
0.05961317998405935 -0.2272971404565376 0.7977564007332894 723721
-0.075943692762527 0.1258657462789725 0.5605488612616403 461840
0.0007451216981220199 -0.18896761849055144 -0.10245676318135999 1186596
0.052646136141611954 -0.002006154885060507 -0.34265508526632904 2435372
-0.03973478137222752 -0.16925889561955976 0.5812168922023826 1120544
0.1375123733660999 0.0549305792678394 -0.5173836973243628 1316891
0.03232944279661609 0.2433259671618786 0.2581182716400221 1120028
-0.07959130698635652 -0.21876976458263964 0.10634590180086656 11250862
-0.04727900088334458 0.12245004668289639 0.6673519538944406 11514027
-0.18152701294280638 -0.0823363195544089 0.6606048221049265 2570315
0.11039430436493891 0.0060412661769833065 -0.20233995457504594 1053979
0.10337697010197422 -0.0707262416590354 0.7395826931682865 5388596
-0.060599320083232655 -0.028247043719314635 -0.2855911549677843 593166
-0.10112287557226729 0.025442823206366372 -0.2843578505727342 10727842
0.08255179485488418 -0.017151432498811348 -0.3937465813289571 2303531
0.10012296811693 0.07718814508432281 -0.5506223117773805 1514270
0.09134943708728027 -0.143524582151228 0.8509022146464491 3025963
-0.057385497314121015 -0.04176358385512424 -0.44005821263718214 1053464
0.17180253572456694 0.060456220472365096 0.31638043133171356 396047
-0.1564180374699191 0.15247929134760163 0.26304689234258416 857628
0.060567487126292896 0.0648454011721229 0.6759654585419173 2635588
0.0895593648363131 0.25211730669506727 0.40554054030031894 593942
0.053021555985467206 -0.10442001833811476 -0.03469302490979853 9742763
-0.1747372250368473 -0.28177874361880784 0.10847363483302463 1318440
-0.059036595646336565 0.09741544041939454 0.6537410499117899 3752778
0.08852660088891673 0.23820226114048282 0.44061614576793007 725528
0.07405729579774611 0.0994120991900318 -0.12190887782997839 2502193
0.055096303301184424 -0.20157782635281474 0.07794631544369146 2305077
0.057253209625582 0.1366428378044735 -0.15691718024100365 2830387
-0.1519712301695324 0.09816373960786495 0.6242012122301996 6514537
0.06034280737812736 -0.17762069831837435 0.25868557366521805 2238766
0.05231588906415929 0.16150384172780918 -0.11530919612312429 1844009
-0.1144142494338567 -0.10312661958987879 -0.27089666189417394 1120540
-0.23160570382374956 0.07373485452331652 0.23584591683087752 1514518
0.10284993111407648 -0.1000719601217287 0.8443525345899343 1315860
0.16944499339950347 0.034970757210303516 0.4866550040646118 791836
-0.23297525543577002 -0.27236247798470636 0.12848723076609092 4935763
0.01785405678972385 0.0913823349667422 -0.23729690029224182 2633008
-0.13969659643887278 0.06561486566635177 0.6685573941030611 2570828
-0.14601836618938124 0.13087975823898645 0.3474588311007891 857629
0.09468383085762433 0.03493485984980471 0.6551730590468352 526859
0.03571706179575429 0.24145830328295403 0.38725628568867476 659735
-0.05630093782514489 0.09607065542464088 0.6806274315672864 1845814
-0.04672227397046047 0.07290147074441888 -0.345728984755739 2698544
0.177983807017438 0.03956179172162311 0.6218711629171016 4277833
0.13619642613905691 0.06265297527491787 -0.41814009601712776 1119512
0.08154904550801456 -0.04191380583554638 0.7116027307335173 11378587
0.10569009155951736 -0.02531166172039967 -0.2951293009387219 2171177
0.08370188441201876 -0.003327740163490578 -0.14623262164497075 921361
0.10076348846951966 -0.010740513606880886 -0.5105744924236646 1316891
0.13067592598169364 -0.18870698065346914 0.7767067602986055 1710870
0.21041679251502732 -0.028252667116727137 -0.06933717774432946 660251
-0.10068547213881596 0.1571324264247398 0.4356629798483911 594457
-0.10186620223884724 0.16456687401376757 -0.058155898697430874 988186
-0.0007265975467758423 -0.10258181405387323 -0.12572485752446516 9608597
-0.15569569229108948 0.2075985864867005 0.030321594477782154 922133
-0.233128421507657 0.08364845638873186 0.21591674382034975 1381651
0.07234118898277009 0.022035614430031325 -0.2638121223063892 1119257
-0.13166147578735643 0.16862519924754826 0.29519852413003167 923420
0.10033198620744077 -0.053119325410983076 0.1522225360071423 13949908
-0.052460220615351716 0.21191981318314923 0.21770126969508774 790805
0.0750881059677404 0.0072667667962103 -0.5386753902263326 1382429
-0.0678214476609944 -0.27939889884047997 -0.05405304000193878 528149
-0.15190430294535417 -0.16986193575711717 0.6404684412282546 2635075
0.09870573510180236 -0.017519982918173804 -0.5382892593433608 1514015
0.03203724918138784 0.14843742776090418 0.6118613251340064 1055264
-0.14529091418126505 0.11786155517324026 0.37647618097614477 923422
-0.05699208855642324 0.006927025091452599 0.6965173769174646 1714487
0.06169961662333545 0.16980633791781918 -0.04414754884412986 791325
0.030595674617759805 0.2353540899570723 0.17899467837657146 856598
0.05493122519301297 0.15500000088080812 -0.1587558277309169 2830387
0.08775811242930187 -0.08680713594238842 -0.03894190090554284 11650502
0.18141300002242255 0.035032199265470076 0.04774940636771474 528407
-0.19382815332899161 -0.18724621576462996 0.5126364242544279 2043711
-0.18834702092276956 -0.14658696451301811 0.5487104103623612 1451055
0.0819030275284982 0.03527948106604373 -0.19723264372765814 2830130
0.06268703146558074 0.09588163900446833 0.653208491390425 1318698
0.23060230336558263 -0.05272234436920065 0.0167697643888034 659735
-0.05531900613888796 0.20599390980858634 -0.0493421230068849 12041411
0.1597897870156988 -0.004994155295406699 0.1380247882909873 857116
-0.08096222671544817 0.014656723924886927 0.6972385060885591 2241089
0.12242204487702457 -0.18462710391097437 0.806321653900109 1908249
-0.14939750583639544 0.06636452401232851 0.6288035020808289 2897727
0.0806801519933904 0.1735047917301289 0.5835528223846116 11250603
0.05395329639520163 0.11613300254860848 0.6449601549285982 725784
-0.1494015932332835 -0.022979141935672853 0.6423318459997966 1582901
0.09242691418664029 -0.07897423246413282 0.8381767016285213 1118482
-0.07268218376161473 -0.23134361443521922 0.37935583951308427 857888
-0.17864523266678134 -0.3221729171207166 0.04901765373744427 4145991
-0.16234819643222442 0.11004410446167778 0.5854883149963748 791836
0.13991232036310475 0.07704044185817605 -0.16034406983695892 2764597
0.08824966722876582 0.0033015734868389046 -0.2689056529238063 1842466
0.033234508964743004 -0.021938393996254524 0.6856316954687272 6575433
-0.04699742205663471 0.24372755340973606 0.03773593151185062 1250326
-0.04016439654514148 0.1392251022019424 0.5978353291683931 265231
-0.13094608275973663 -0.05315473818845651 -0.3310421288320695 1580063
0.05596507040462084 -0.08371833511827076 -0.012840127014048575 11189697
0.05945737532281514 0.1498552459334621 0.6104559486516115 1384233
-0.030589536939874762 0.06707445875524454 0.7021440466855446 1582384
0.07208843346548699 0.2609287585624829 0.38036322342183104 659989
0.10417005012872638 0.1734771888876694 0.1761293703293858 772
-0.08690530318849321 0.12653617135273665 0.62570338620902 3422524
0.04351366269654111 0.001164401525330483 -0.3388517641426121 2302763
0.07643621639492437 -0.06127484566120589 0.18914526170465362 14016217
-0.042432648384897576 -0.08723691857577975 0.7436857376103378 855567
0.09025069143818687 -0.21028849056092025 0.8045269602478173 1184526
-0.0004919230901370142 0.1362622709161836 0.6222497934743163 461840
0.08220865451070347 0.0496472912844117 -0.5323265629557494 1053719
0.08193143275144088 0.03816077544313434 -0.3706732806178725 3159353
-0.1256752610225167 0.15387937429339837 0.35087948338920083 857629
-0.11942578667271153 0.1620095385573641 -0.06271084597006182 922393
0.059918463538508604 -0.17365768321783626 0.8493645359643487 3750198
0.15755390655375034 0.18652480266728233 -0.011958586940987836 3356728
0.009568442143690792 -0.145877712907865 -0.07281419189279004 920326
-0.17469632329040152 -0.15107171866018776 0.5939033372965075 1582643
0.05974583153503765 -0.11565288379987826 0.8591806868365282 3420460
-0.11618416994691794 0.034305689910743675 0.6721893239620302 1714230
-0.0933637920087862 -0.21379142527360684 0.18341237784833142 790805
0.048134339935518966 0.06801765018342443 -0.2083650173408924 2633008
0.0648636412296324 0.007781691479733954 -0.253788811688082 2237992
0.10973482926668154 -0.03322393839447191 -0.06278492479178821 7503221
0.030653717775588785 0.20839072115850876 0.5274619797413029 462356
0.06953725065851657 -0.05362851552543857 0.04981824641824906 11255744
0.11963957395573788 0.2480033041695635 0.3880843053019567 1120544
0.09815399810068026 0.048574902689688226 -0.3911611017630081 3422524
0.09875791999105443 0.0296189986966946 -0.28179340375258577 856087
0.05653561149891351 -0.04313492279618336 0.7134322050399611 6638138
-0.09420547791248346 -0.1651158573751782 0.6067368341537023 2503749
-0.18653105977622175 -0.28630161339042703 0.14057968822366695 2568246
-0.15472848600594968 0.19668147220265153 0.06433839142244224 790805
-0.13152805010097568 0.14572292394345365 -0.0880644002093991 1053979
0.16344759519002938 0.003160404345738721 0.3164268558977157 1120803
0.0658394279044412 -0.052225293736034795 -0.010410758645086227 10597558
0.16188134271185506 -0.01580391409681392 0.1978976605356182 857888
-0.12022642934109706 -0.11392799102077356 0.6306390189853144 1582126
-0.14250602420733127 0.09329403688318938 0.46951815643936157 660248
-0.02950356827244649 0.13463510858485295 0.6180446751397515 396303
0.09611599694226491 -0.05879376894078825 0.12008462151714738 13291969
-0.11846925243624895 -0.1723123119739195 0.5926762266649497 1976890
-0.08751637599112261 -0.14559541766523454 0.6182826611930174 2371905
0.0918296219113266 0.004479467635041923 -0.3112791686996359 1777442
0.02468689969303739 -0.11483007290154301 0.075971887278806 1908510
-0.09032535465653835 -0.05680027589532455 0.6617263610177102 1187370
0.06166371350932476 0.12885532729332927 0.6254581611592256 1252646
-0.11686878459854988 0.06910668803506748 0.6674070939727292 2570317
0.0881687137932099 -0.026416681904072203 -0.015328970781922302 8491410
0.06478257100642493 -0.04637842078718635 0.7694491931537633 1380878
-0.2102639815524152 -0.08564007988713884 0.6518166103294063 2700866
0.23865211127056574 0.041319734318424395 -0.1481269191588337 1777440
0.10666753893880188 -0.046877058500733426 -0.2931162369563123 2434349
0.12760307147870353 0.20313057128215095 0.0807498571929095 462356
0.04694545404166339 0.05186318795560507 -0.34566852356654865 2764337
0.14901844673739895 -0.01944918905728965 0.13685165936109334 922139
0.04548299189440286 0.0014808039134077688 -0.397570679553477 3225146
0.15204992514978777 -0.025819100535216744 0.053939082269027994 659991
0.055404254819686916 0.0057928335165611244 -0.3704993969984267 2633007
-0.06022586207883629 0.002649892582906821 0.6740151690963465 1516334
-0.024544686472681487 -0.05839515787644889 0.8266335273268417 723723
-0.17143522307183812 0.08475448081756065 0.6423598101558585 922907
0.15239993324422407 -0.01519294213072242 0.11704026785235733 857116
-0.04423088708626555 -0.08056303171183687 0.7784480126214672 658189
0.021210108554535534 0.22901516369385044 0.29811226974493654 857114
-0.14380385390307904 0.18661438799655916 0.1376884199362619 725272
-0.01869183355827886 0.022343150678825863 -0.5078807742737941 2435372
0.059284939130748615 0.003556900022326115 -0.19061126783920423 1251098
