# .PCD v0.7 - Point Cloud Data file format
VERSION 0.7
FIELDS x y z rgb
SIZE 4 4 4 4
TYPE F F F U
COUNT 1 1 1 1
WIDTH 698
HEIGHT 1
VIEWPOINT 0 0 0 1 0 0 0
POINTS 698
DATA ascii
-0.12792791364817724 -0.1662506405073687 0.37097527644530803 987926
0.02049776957872318 -0.026539550133180878 -0.3998711735788003 8417879
0.005835935209167253 0.006670395621483305 -0.4229367269253914 4734766
-0.018478098707257473 0.04725830490839256 -0.4607654180434291 7828327
0.09885226074220466 0.10846106848368953 -0.2697010228816 10389352
0.11916945494564057 0.12162072910454347 -0.2554565580430017 10258280
-0.013572561377520387 -0.06023568848244709 -0.4856066533606014 10126694
0.026255723997494318 -0.0391465104904567 -0.4252388170614636 6772290
0.0018948504560718504 0.02464428576878852 -0.4644618641820779 5723205
0.1078138761766807 0.12643099783975886 -0.3052903010561572 9863524
0.08689655316267908 0.3023651521196675 -0.34260140473011047 9142897
0.015007794493866022 -0.04064970452733663 -0.47823914517005983 7429961
0.12746237107619152 0.12724134398560283 -0.3083710368793118 9600611
0.1303540555670044 0.13807097498390197 -0.28759560138762885 9864551
0.1467177711014389 0.19851036427506896 -0.28059859861776815 8878949
0.13510980371246006 0.2314382507795334 -0.2996858242020246 8813415
0.1278489696754992 0.2606296978365443 -0.3118905234208764 9208690
0.15179833756473293 0.1684335183807728 -0.30541890821324014 9010533
0.15258398753315117 0.1899516405524162 -0.3048607498387148 8616034
0.12169342266008432 0.24122408769785997 -0.3553811693345117 8681831
0.08531547896458536 0.20093997995874302 -0.44827961837474417 8680538
0.12214724487350104 0.1915334434091105 -0.38869314746331796 8943970
0.11637078312809912 0.2199891549359232 -0.3989238826441155 9010796
0.08544085311753502 0.27225234777403795 -0.4504184977665915 8287841
-0.04543273206649001 -0.03553467083596784 0.673536422542721 2302239
-0.04451666373943475 -0.034294985517981935 0.6995476354249797 1382166
0.1851990388151563 0.19431162020530612 0.07055287618626571 9671571
0.1320432364856452 0.17188586287072516 0.08781164847763168 1251098
0.05662688894162038 -0.1061966619055128 0.3843989194882387 922131
0.01926385724505142 0.05738828082037806 0.8340145685054456 4737096
0.10280774782976998 0.28943252168360845 -0.2850002725493286 9143410
0.04754014783973126 -0.08546638410030782 0.6344436434241238 3946297
0.12502067365594893 -0.030359452962843925 0.2917564724495023 666957
0.14206301467989935 0.1587338756755461 -0.2866155771654806 9075810
0.03714501436839068 -0.11140998686778403 0.10304995290932917 1382684
0.10257328441100722 -0.042531529871955964 0.3065753520198111 6054760
0.047803123485296695 -0.0923134613725658 0.7357356422653689 11963512
0.1199031773986814 0.22486673275246316 -0.04359794797780414 6313044
-0.07285376264682686 0.2508075923302786 -0.31923878185701593 10854806
0.02297945475659935 0.24448573982084065 -0.27834888975293204 9274744
0.07610974031389617 0.2100981486982776 -0.10644430744830635 7694933
0.03943267179724641 0.2147893987312357 -0.16462622728921716 10327432
0.05733946468529405 0.2143821030433828 -0.16876545849548474 6314059
0.0304138664881628 0.2178020671269505 -0.21106344819846723 5852995
0.04020001217768954 0.2181212039986602 -0.22268808316469357 6378821
0.03517986200199097 0.21973092641930903 -0.2473746915205126 6971211
0.1572898043308939 0.18101353377302187 0.010840955623147908 10198429
0.12514421595529246 0.19451608231691297 -0.04010285452866991 9866372
0.10269583973681051 0.18835282957490174 -0.10328372623934479 6839885
0.1162946771605502 0.18864619116033898 -0.11966093642028341 8944748
0.12493417191075196 0.18888719438207868 -0.13121924707362242 9010281
0.15485572880340825 0.1907388534745249 -0.1657048881575136 7102538
0.12377266719594271 0.1660817292025829 -0.07723415458816252 8286042
0.14207870137162226 0.13238848404077608 -0.111694390096586 10719091
0.14224530054196993 0.13631587608673446 -0.13673870633246477 10390125
0.13398636285413756 0.12691795747885104 -0.1834164028967642 10917239
0.10498641649204066 0.10577391757984911 -0.04132045410061158 11048311
0.10184077456130458 0.10608115344582636 -0.07890634023711207 11706240
0.1177688014581193 0.10599114357044925 -0.15850022798249808 11180413
0.048435982464227756 0.10869797654259283 -0.23835795790309033 11114620
0.013164527806008408 0.1102507871101408 -0.31135278645654196 7960163
0.08945006606324846 0.08624314862271865 -0.08059035843405038 11113588
0.08499687758828323 0.08594931735527389 -0.16763356038473964 10983034
0.019204014971835548 0.08768068916409977 -0.24375074682861042 11509125
0.06265775012628572 0.06719107674299662 -0.0589299761895119 9797729
0.0589546890273267 0.06658161370989779 -0.1058985470039836 11310968
0.029821701987243987 0.0667039921157877 -0.15727622550123677 11773322
0.13355265908090708 0.16890126007583328 -0.16297535944931907 11179643
-0.05649778041988185 0.06801407400618675 -0.24820453381467833 11575692
0.06428309760643813 0.047163318985353975 -0.05814540587921946 10456690
0.042487798030063306 0.04693407519677972 -0.09293703207826853 10719860
0.030650463738014277 0.04658985164867069 -0.12032236014658104 11115392
-0.14040745722513703 0.026060944854150225 -0.25942072968835816 12300963
0.024169557727808044 0.006902184310409787 -0.0910377958378572 3682593
-0.11012221201353745 0.004117921199373598 -0.23542685696697263 4931125
-0.14489725774115003 -0.004008869778286961 -0.43141792005719193 4802111
0.0011628648550812137 -0.013795374253801285 -0.10984228912250238 5326386
-0.08554914173196115 -0.01845273318243823 -0.23519855104851373 5589307
-0.05153564883888073 -0.019498714653496396 -0.23635453663555683 5194293
-0.04384070686812702 -0.022793978443860663 -0.29019828766413025 8548954
-0.041454652683675874 -0.024537865218467125 -0.3195440258948965 7628363
-0.03578441691672696 -0.025641252808862536 -0.33601160346506553 6841682
0.01473742987119886 -0.03886406837629286 -0.17229319465290338 6378045
-0.004428911908730626 -0.04068849204217129 -0.2073365562023568 7956303
-0.019510632180709475 -0.04244157440619567 -0.2396177699296076 9338211
0.04773274082450962 -0.04375950854020916 -0.0822861478358261 6970180
0.03731975497722351 -0.048986911983152304 -0.11137092752791045 7562316
0.037711634984809006 -0.04731886496137294 -0.13505043127990946 8286039
0.02981734541208647 -0.05943562492123933 -0.1603284821241322 10719862
-0.011796422683006735 -0.06875283781052044 -0.2947520696169579 8219987
0.0408226662899378 -0.0758911845121113 -0.10623743241020611 11508860
0.040021084708249166 -0.07831050613755419 -0.13391891397162325 10850930
0.012088411752080308 -0.08122791766500903 -0.17550620687847762 9469279
-0.012913469197091132 -0.07492049784130383 -0.234820445753256 8943195
-0.011426507629915594 -0.07339948182172806 -0.2602483104172212 8614487
-0.10846198349566682 -0.09990301483424702 -0.42398836753813685 9274988
0.010078628634675901 -0.10434176066358525 -0.1967462972176195 9338469
0.03619545439064664 -0.10496123596528895 -0.11245383360407568 11510408
-0.049199772866000746 -0.13392934488538977 -0.28706181493363436 4079679
-0.13262694713144985 -0.1418823538988092 -0.37969131769080455 6316639
0.03198878850699316 -0.1344919784280898 -0.08840344533875366 8551534
0.015515448174906687 -0.12920694754872075 -0.136834705301212 6576969
0.016069370889019385 -0.14204078989482394 -0.15507561761253652 1776660
-2.4175233974688126e-05 -0.13589245997727595 -0.19638469174422513 5197639
-0.05991837435407943 -0.15221522837268386 -0.25631670592366085 1974301
0.004776982873667013 -0.16143596965886742 -0.14643350816580414 1842463
0.12848480017401442 0.1721545797554369 0.5199680812259693 1645082
0.01920875887034823 -0.06077599630812003 0.8181486770150923 1842204
0.05557500586124542 0.2499507725173853 -0.07735498040919198 7565669
-0.16350902367150244 -0.003170188761989934 -0.4252041865168259 5393470
0.07109943424467602 0.2178132825327217 -0.23665550899511323 7102799
0.1842835214718459 0.1847563381969448 0.05255622415950478 9868950
0.0771647117802865 -0.08234044757027936 0.7408361110710957 9465955
0.07027287271843008 -0.08289799390459862 0.7704409337964233 11306872
-0.10913736754796144 -0.10241292854609396 0.0023203547172478967 7827552
0.12939175380939183 0.22777369333155528 0.4238171672194282 1185045
-0.029318441059089206 -0.1295683824880065 -0.2599001269485618 8091756
-0.11579853941357321 -0.04666778395409521 0.49012327479424433 790545
-0.0689208477162695 -0.07253460614444673 -0.22587220379594686 6970955
-0.0054294925190752075 0.17869568377661516 -0.4870794112176515 5590075
0.1080049997596011 0.10366914676501393 -0.017876241349871425 3946544
0.05723578720446332 -0.10035662460564998 0.12152303165340927 1316887
0.12409557234606794 -0.011822189499640423 0.18965505570580588 593167
0.12333894490689001 -0.01428593656572863 0.33872313469193127 1390673
0.10596956140639202 0.010844844915833818 0.4027431834781432 1652043
0.13109881331665196 -0.040098253130353534 0.7925197995653317 1973529
0.14851654056335972 0.05963207962968564 0.16921835104608984 527373
0.07092592596660507 0.05643293321437515 0.6649252747489596 6307897
0.09978034052505347 0.04917431768371161 0.5787427802303329 4079425
0.10354711528771565 -0.06360443181452302 0.8118317845547913 2171165
0.10761707463632986 0.07471718706744657 0.4353116676533184 791058
-0.0008382638919002261 -0.04694065268968517 0.6609303240897664 12885136
0.10295498047570906 0.07997138652634916 0.5657042765512685 2435111
0.01357124405681498 0.20849714062318325 -0.1709411399156071 855047
0.13861756454414298 0.16981939510360222 0.16384811383291153 1447705
0.06998650133768924 0.049872287181457864 0.6071328657233355 8153437
0.09341055575770296 0.04616893287420254 0.615240203366038 10386277
0.09264244255407972 -0.013037148470388615 0.434422743754596 2372927
-0.028935506372996134 -0.19257599337859044 -0.014145345169547574 5789783
-0.10728113879660572 0.0697424348261908 0.43853489884504215 132099
0.08413609528786514 0.24701701813432342 0.39027812521526495 1185303
0.11953253765135718 0.17136837166771945 0.5407206102352711 1777696
0.11838674791470671 0.11666396417187297 0.03976869340497413 461580
0.0838546774818889 0.12830131905239472 0.52285685880335 1185303
0.06169669881414208 -0.14899271925885094 -0.46832190169471755 10984582
0.08842185693629023 0.2422836094526737 0.5377082081566016 658957
0.11026934003720745 0.041395870107326704 0.406066946185595 3689039
-0.004560827497737119 0.17029711748300524 -0.32241756290190615 4142890
0.1466546462566729 0.22382610996535357 0.4596867924276491 724752
0.1505154295712119 0.25495918705130416 0.1675413418296099 7040107
0.16399781792687662 0.2620904106103472 0.10264251855062878 5000523
0.11421250435856933 -0.019257059165042723 0.34279375025047765 7481
0.14595435133405754 -0.06671827424914278 0.7883048524833753 2894630
-0.07845234275596669 -0.18983596880310616 0.22082191321099987 3224630
-0.05937114060653448 -0.07454246703704914 0.5628825055443867 1448475
0.16473621262178995 0.2414785644860049 -0.0690080022879902 5524543
-0.030782493605169048 0.14725404698372824 0.4066672518159491 658959
-0.05849795203881758 -0.046368082492501905 -0.26671225611261384 6246975
0.0266179337664747 -0.1045408035378661 -0.09191295937892352 12495755
0.04472608970254033 -0.07339465129545664 -0.07673629133843263 12166277
0.0543221064487831 -0.10456770517557734 0.24313582668191636 987924
0.04357931665072279 -0.11433731712414241 0.22441924443101735 790545
0.0765320295542149 0.16434161319205876 0.5717085337665198 1974820
-0.0797851792552664 0.19525727310757768 -0.2943848804857776 7628364
-0.0824509619031617 -0.16157792531972826 0.16499410493671385 461838
-0.05179138392395766 -0.04339252957397077 0.5755053287796363 1251096
0.074194926760903 0.10355037427148428 -0.2845000790679939 4602160
0.02597785464498159 -0.08618394582179656 -0.3695291735200601 12167310
-0.038456426153761214 -0.26971971042193843 0.08031157679842305 5329233
-0.05136056618754914 -0.2497081736327833 -0.12331461443594782 8750210
-0.05139192355361377 -0.2487219351157719 0.013973692595082632 9803157
-0.053717036720248856 -0.24174619360154037 0.041436742097315626 9935000
0.024210222536532378 -0.05935984370531955 -0.41826716183506596 8022351
0.1370357137735425 0.13089169707275916 -0.2707291703084005 10851707
0.053687611833696636 -0.1413032462825492 -0.424799141134911 10128246
0.1271769980509294 -0.026579326009231963 -0.054586985122280884 12893623
0.09645772946724085 -0.06844761775882446 0.248845419547447 1118994
0.029570414612580365 -0.19114900163392834 0.10963298791629783 12304320
-0.02351040501850532 -0.04082260893908707 0.6135934017868452 4933440
-0.01834945113110198 -0.03438913897315432 0.6618439600325496 12029056
0.15555258658709947 0.1650627228763093 0.4593881001095441 592652
0.16387887831165582 -0.17328960738615873 0.11922238788756934 197892
0.12140518114735732 -0.06143297484881893 0.30155682278271345 724752
0.12119271594763958 0.2032535310298118 0.3093079719086369 658959
0.0629173639998526 0.24801206920443164 0.3569524166189251 987924
0.16466540684642483 0.18307235764168972 -0.06681084791666603 9342606
0.052502148007536054 0.06711693195866131 -0.0843971295945205 10389866
0.03746513810478147 0.22555349539804848 -0.38329256914993115 10064258
0.09464295628892971 0.23837962115436273 -0.3762896966580147 7299917
-0.013178233496589975 -0.10955166782672343 -0.2558101188094015 10063484
0.16157767747190643 0.10578574991522016 0.28419103119355027 593166
0.03386953766791034 0.22037212577102805 0.4598363040767983 1052947
-0.0008038280762061589 -0.04671775468462114 -0.29520011829525683 7892821
-0.108683807422147 0.012106811487332614 0.4400316548052223 724752
0.022227176473643695 0.20769908523651504 0.5007202601544947 922131
-0.10150591546242183 -0.07538426346840366 0.5169623215878247 987924
0.15060746027534044 0.24058005789133352 -0.14570058141858633 6444867
0.03916426615444335 0.23688406283587105 -0.4076103620467051 13816522
-0.0011000249318620092 -0.06996264535793228 -0.30651881565723826 8154707
0.006030056291705943 -0.01076035300973155 0.7969969034289861 1710618
0.1053076960348589 0.015575724058856988 0.20113737963062306 658192
0.010917929904384227 0.2034130347688925 -0.4274474633048251 6379076
0.01790865764162275 -0.11724050217005377 0.4215860529969859 922131
-0.09566085225779153 0.03336109544530608 0.16523143501463022 66306
0.034677064460720164 -0.08615176778125244 0.6640612522303724 6379088
0.1260344431690399 0.14534544665567228 -0.019672590275399582 6510409
0.03560211169881722 -0.06936173819388491 0.5573105815890615 1119771
-0.0027480482032178344 -0.11858680903899499 0.29582985550660257 856338
0.0043971905247275345 -0.11912276283177325 0.10545308534011544 658708
-0.0721636261348193 0.16884440798398126 0.07820094661830612 4737351
-0.14455413909953085 0.052963041521333576 0.10061365462486693 9869467
-0.12683802371163289 -0.15967441296156393 -0.33287891491124855 1843233
0.07319681261539923 -0.015143356528893648 0.4583851465466944 1778728
0.06933053055274874 -0.0160243465554597 0.8272404875253527 3618097
0.010408736909612415 -0.10182697449074407 -0.30109232379866535 11246725
0.0450160402596369 0.2339386300050501 0.4210098287451536 987924
-0.20384082703869488 0.029036577872370017 0.3523241429174133 263685
-0.08813509305961986 -0.12517131563560024 0.5694902082040372 1448475
-0.20976327559540242 0.017141875971832032 0.37381240154026396 197892
0.13993269938869224 0.1420978486775062 0.3287578595391183 66306
0.10198154866919662 0.19431506046886682 -0.20510353192607367 2302753
0.1307381607945688 0.136564705127177 0.4904445696356343 1185047
0.12590511520014225 0.16560687968073928 0.2191782260091557 770
-0.12121676811284843 -0.039698585922381735 0.3453885292826331 658959
0.06795608199650527 0.1703473147594976 -0.28558003654141295 5720379
0.039959163704081924 0.13537939692346113 -0.13536628051970778 4208170
0.12543542714641642 -0.06802071665906517 0.695681512364438 12554366
-0.038216528759099866 -0.05857433891085417 -0.4874375958513588 11902337
0.07657243134059355 0.022310874162084993 0.5230091884516714 3160119
0.16401157623049123 0.15157712008356938 0.4425866530728333 66306
-0.02056393396885392 -0.10161250313827974 0.5536417714818556 1316889
-0.020172481475641213 -0.016288485543324516 0.5860135509228521 1250838
-0.21083824139960594 0.02516331748256695 0.3261637720413111 131845
-0.05046696166437448 -0.14366136735705393 0.22223692360068914 658445
0.14830794646760914 -0.014739627819917 0.7222898111296896 1904908
-0.03900908440994577 -0.04059395001964772 -0.38576994549711463 5787456
-0.02955535740495474 -0.21107471132737476 -0.04907479744964194 6776418
0.11246883321038137 0.191210838908225 -0.1709597564560832 7693904
0.09563866672868881 -0.06746052606916653 0.7916775699565783 1842201
0.09375205195875758 0.04334117003760252 0.6994062228350064 4535084
-0.12957418016753675 -0.017631121360104807 0.0558564560654391 5197635
0.004476964782878845 -0.027685935342630863 -0.3609667303926489 5392179
-0.11403529281668634 -0.014697007318134059 0.014797257922997686 6708563
-0.017246541620698608 0.19289207416887155 -0.33417163409985706 6510401
0.17994474252658188 0.12417162615936528 0.31650169613426926 593166
-0.17657443654776994 -0.0022765364007093503 -0.4143124697810334 5525056
-0.05271528051717045 -0.1409310338771137 0.16925159250087862 527116
-0.07065496924353987 0.04709340666293915 -0.22140847546396003 10920331
-0.02136943804748226 -0.07147055028959448 0.5787082484041279 1119509
0.04421312050092263 0.08762903551962564 0.7040770330206094 657930
-0.026595515202560094 0.19432465504982321 -0.29095081727702743 6245946
0.1445154771839774 0.26276115674737355 0.04991693948565756 4606019
-0.23558114798170027 0.0322851302644227 0.36982293113284803 131845
-0.12611725063232315 -0.0746835678064941 0.4581956507196616 724752
0.014008345200393624 0.19708736902311852 0.4571279714390919 658959
0.06561127732945504 0.247575211072248 -0.05201768953609731 5066313
0.10708625310326303 0.10908413748806423 0.5005968255391449 1053717
-0.2462968618565189 0.018850479554240795 0.38026622481146877 197638
-0.12915185510148275 -0.03324255402680132 0.29484869395192836 789775
-0.09042919875132416 -0.22247991111555332 0.09972460237149972 9540498
0.0842792101029275 0.009907239196978779 0.4956003430646332 922390
-0.07515292823413677 -0.16381081375109963 0.19870527675642924 7566708
-0.005658404012328866 -0.12489618078302556 -0.5386049216207498 11049597
0.15312139442417028 0.11816629030110848 -0.17369192590418225 9600352
0.04236586248496321 -0.060665373388889776 0.520526029546724 922131
-0.06084939306912851 -0.06624359793705947 -0.40637222580552246 6181701
0.09902287878046057 0.10520639151361477 0.5424298595929944 1514011
0.047987208449309815 0.10882693119291842 -0.2593957947935115 10983286
0.08858944437457517 0.28276501010839805 0.26717690176554565 658189
0.11037212834721055 0.08533770346221559 -0.12708940620286913 11180413
0.09043489384180647 0.08370767128180745 -0.25161486769207153 4142890
0.040862806024495324 0.04941832119926426 0.7878360639028579 3025703
0.11807099266830123 -0.10647080506096618 0.59802293031826 198408
-0.034592999579309947 0.11014954814057587 0.4802911101625389 790545
-0.019769360391930668 -0.0472708261729915 0.5856146253471994 1381911
0.13928028210197585 -0.07541133543551837 0.6460731918648641 9465954
0.08985939917308894 -0.0737797112562002 0.08684933109128234 1053719
0.03468547402940203 -0.10082625164619063 0.0029415255327928103 1184792
0.15898244555111551 0.11816391374739776 0.24981537329054726 527373
0.02244721813274797 -0.05208743907360924 -0.37077377747082574 9535588
-0.07248469234063437 0.02725903569809418 0.1654632714366806 461580
-0.04096865819105311 -0.2560004267835567 0.2632668010691839 461580
0.14017539891892739 0.20839946983820967 0.4271101042562764 658959
0.01842670277662295 -0.06526741198393404 0.6072017690500733 986123
-0.0012686770920122825 0.16047169987999155 0.10585799463243872 593166
0.14728742593020794 0.09670593478222012 0.19809413067083592 658959
0.09674409073411994 -0.008837485872347006 0.45655969471655933 9334886
0.03544689209046581 0.14409127724012416 -0.37820260643961445 4076586
0.06081283888612754 -0.18168246478931183 0.07775993563149286 527373
-0.022307252974753666 -0.024533936188174454 -0.44119925871533416 5393472
0.09426375696541545 0.07341656103998151 0.7679883127101002 1118480
0.0021581715634857446 -0.13759439007845486 0.02448466509901137 329994
0.0047313224105316465 -0.052129028835092406 -0.5044703022679327 7495750
0.11691812995370521 -0.06865804349984339 0.11303381818080038 7630707
0.12337234081195447 0.19098273834205504 0.22900272452404846 527373
-0.0115189757566303 -0.023148084451813045 -0.5004435577532513 5523254
-0.017709839149511186 -0.0390643912066464 0.6388806960547637 9863026
-0.09400473843651191 -0.061877931719060086 0.5178074911126169 987924
-0.08469314353566437 0.046179869630668335 0.46410528032546083 593166
-0.08092693363963388 -0.2308955290837753 0.07194542634892487 9539985
0.008240509190003298 -0.013164893732057426 -0.43282556462208777 5656124
0.013912180983719935 -0.06733834365811564 0.6767795485009065 7890522
0.019128124032107507 -0.11109602150746145 0.4566081186755946 856338
-0.0038743491284662923 -0.1172643318345239 -0.23376105867057007 9734256
-0.025061164570973293 -0.15408425590473307 -0.07561925451651197 9669754
0.04140403875545262 0.13573696474090724 0.5771949522830582 1776924
0.007938887510687831 -0.06938989007567598 0.5743084124074553 1579801
-0.04430657906801505 -0.1635696713750665 0.013491925556386342 987926
-0.0995175207582113 -0.2438163012151242 0.08598613544925104 8158845
0.015642995814134864 -0.0712477958485409 0.7656270827736598 2302238
0.14358119582315787 0.18963472119716362 0.050432743355534715 7960953
0.1706222632136276 0.19924025168145132 -0.14537480524579793 8551534
0.04329490521931012 -0.16780694549667685 -0.023502770676552043 461580
0.09200830297837914 0.023337811744644554 0.4964828076697616 602192
0.06781086341111209 -0.013045908601230671 0.511422332920112 1909287
-0.0509957285030338 0.2501668438861415 -0.3216280991229561 10656910
0.0060467553895420245 -0.09455490355285656 0.510843531238752 921615
0.007963244125203772 0.012011343532937424 -0.490832300113055 6314059
0.08522632571501632 -0.01706921194604938 0.5533713319938984 1252888
0.011981126331341851 0.1380297652974929 0.5861506941665007 2105632
0.14626720393410286 -0.03976762974842041 0.7068708932652432 12293510
-0.02351557143126559 -0.21695571794476165 0.07415191073763994 9343888
0.026391821593233722 0.01471259702976635 0.588366541554229 7238006
-0.05638844220973782 0.01828612196547086 0.553622002501204 988181
-0.07828939731129791 -0.027829474432845114 0.21604931333303012 132099
-0.08359989397247158 -0.044650666664385774 -0.4225835541273679 5720893
0.007902178924347414 0.13686866435520573 0.5637066172928278 1185302
-0.022874366665578183 0.19360292366977472 0.44948074348356704 593166
0.1959948888382348 0.04787410649287782 -0.383629405735606 4077357
0.13285568700950012 -0.04236490953192229 0.6088679511030062 6841685
-0.10777881690954061 0.05018430717259381 0.04741420162753096 461580
0.12944004021319921 -0.013470173730016466 0.28767343882787433 267551
0.10388053932330177 0.21437779203791552 -0.4088176732562592 6510658
0.03798076241301551 -0.10001101003182455 0.43190298079919853 988182
0.14052624920067114 0.14310513599333463 -0.15838467271905787 9930090
0.09586790512452348 0.045040078270307315 0.466341509289522 1583929
0.08536035552849297 -0.07730671916986775 0.29501822939708866 790029
0.021671909351451468 -0.008683441783726042 0.599521879371121 6255235
-0.13609777526556233 -0.042453420212712256 0.1257638701544903 461327
-0.21117682365058887 0.04596716655809008 0.3612597157690898 132099
-0.11135620191153128 0.03424197699650344 0.06786887856894142 593166
-0.05984240759978743 -0.0064124203246285205 0.562677442367612 1119510
0.04303060921104862 -0.10832085262882929 -0.19335632382950907 10719864
0.14704838322736702 0.035186020948803076 0.23019951763512392 265482
-0.10865613328211943 -0.21955716816995863 0.3076682862957938 856338
0.1874914884276606 0.06750001270776673 -0.42961887471393423 6445392
0.013031736670648275 -0.11155964728015233 -0.09566124186487213 5066053
-0.04690210462544231 -0.07388607628041433 0.5808644622112789 1251096
0.0729394364472804 0.1225401976616669 -0.3386036561771739 3353376
0.11806101072943864 0.07599781609683864 0.0027593663117826406 658959
-0.021955210034838135 -0.12543831799052496 0.5427869446878641 1645854
0.03534238089219732 -0.06614069633693731 0.4918203999970383 922132
0.10358591628393743 0.1462488904243311 -0.06756551864305238 8746079
0.1519325333307009 0.21712942597692875 -0.20144049828444865 7366228
-0.149373917012948 -0.1722622686606301 0.28941630472491897 1184533
0.11736956703611057 -0.07236905354295642 0.18503158990564605 3027248
-0.048218609597837414 -0.014972665810518926 0.5766217488419818 1119510
0.010264378900539217 -0.03382807705849489 -0.3278382463023011 6248779
0.1149562844013059 0.12830897946237219 -0.04470103953871618 394245
0.024507938390798678 -0.2665826734236254 0.03178609956869205 5066061
0.116168996523903 -0.0365236318464377 0.8112095123478533 1973787
0.13255153313872814 0.14869125974931752 -0.33583298500363323 11115133
0.0643226832072421 -0.08672351242370713 0.013633650989530954 1185303
0.1470712606771829 0.08744625954353369 0.2587621636893589 658959
0.031076322932155342 -0.0715548168503557 -0.3509715689829802 9338469
-0.05556394617686955 0.07863621379622066 0.5036334988466249 527372
0.05019641982631873 -0.07932504958119369 0.4444745611958685 1910315
-0.08164869153885368 -0.21931707672601974 0.1627974421317293 10066842
0.0067997978426714845 -0.04386568079907427 0.584686967891803 8289405
0.11218545097337795 0.16647801941396745 0.22470036786598802 513
-0.20721662905056326 -0.020400772968253378 0.3358490032365069 197892
0.10018231084429807 0.18975784861537592 0.5497547688920237 1777182
0.12723622348784103 -0.07516471951465808 0.672384685160287 13409161
0.0921635318186329 -0.060557285902290925 0.3677174805398318 724752
0.11642390653718504 0.18491544121455528 0.26050426414204875 527373
-0.23048725663521008 0.039587416125289376 0.31406687947994216 197892
0.004575170120397765 0.04674139110042974 0.5804391307092462 1711131
-0.04010979684117988 0.10309331612117623 -0.04207993124799869 4735281
0.12480327136591196 0.016165376698040745 0.37860479408309344 659989
0.07523982666400908 0.014433231326138607 0.5487209543835698 8153942
-0.06827611127680022 0.049328597984370504 0.48975286432931053 593166
0.05822587461019202 -0.09521400237817135 0.39431731836932427 922131
-0.09596517441754315 -0.09728510508708776 -0.39049541680302546 10193518
0.02242488754144656 0.020903357642686693 -0.32418106562166127 9076334
0.12313820646143014 -0.01634984823016916 0.2222447672648593 4213332
0.0317918470928471 -0.0478431541612494 -0.29827989794822996 3158315
0.030187334625259687 -0.16173685655349956 -0.14400584399361782 1777442
0.11807232067383344 0.04578761959639266 0.2938144943891703 461578
0.013654741119989211 -0.04024080091786075 -0.40144553751084855 9404257
0.07931585550141573 -0.0745633165137689 -0.03068531074059222 1251094
-0.18666322970628935 0.03440812124514414 0.2833346757881192 197892
0.05157931960472384 0.23699387212227618 -0.5371601793903511 6972241
0.09578070384249537 0.2488786070642921 0.31613016573253505 724751
0.05368918543091805 0.03353224287860046 -0.2114492199591611 919043
0.06965433139263899 0.19370626620575893 0.5487377760824617 1711132
0.09776028616167132 0.2663200595609396 0.2690747297172402 527372
0.08472664507979033 0.005993032830110767 0.4763631975548803 725012
0.008281003397166753 -0.017736659084921058 0.5905462218600042 7631991
-0.08934830392171733 -0.24790586116359004 0.07341870795736893 6842472
-0.016030464948237455 -0.13419543972790304 -0.16058249368272093 10851967
0.0995898930469803 0.017735340138470335 0.8242152911906229 2960425
0.11503359481587117 -0.00162215040281799 0.2896311022362592 593425
-0.04916264643455159 -0.21903667859352582 0.10177940877969338 9013898
0.15898390095862114 0.10763361648359204 0.459767141970975 1250840
0.15007506817503202 0.11664112610914712 -0.20872852183546353 9995623
-0.18732845525991748 0.02054701531597969 0.4418522838422132 131843
0.04656662375199927 0.19845951801269734 0.5543151711523748 1645338
0.024852981001041385 0.17887338971236844 -0.08997020537830713 3486251
0.13088677297334073 0.10450417877095974 -0.1964905490308042 10719090
0.02409837407741744 0.07965636964920586 0.2865411515701135 132099
0.10412155373419374 -0.044001739137925266 0.7638474935067872 2958628
0.0506374813094248 -0.1000861566949931 0.06185925264265446 1316891
-0.12142435506220961 -0.03519540769654128 0.4427309743334289 922131
-0.11754679387470146 -0.09598098074312178 0.30177341048552386 987924
0.10823831694782626 0.18843819030927333 0.31454887893415107 527116
-0.0476921673762547 -0.22059112737139452 0.0754322689126049 9737622
-0.06614059747470602 -0.04557188786984012 -0.11940339944250278 7759700
0.10914558954732234 -0.08058666562586358 0.7011396814517032 14198936
-0.043085431692489795 -0.19555553611148646 0.04254575167654906 4802889
0.026050160998198013 -0.16448162147226197 -0.16598049561305706 1645856
0.14267631587113616 0.1399889125776972 0.3065234022572405 132613
-0.21563144000451318 0.015610426701015978 0.36377993686950383 132099
0.08470025737225262 0.11959296549264176 -0.38392701118092365 3617576
0.06862618622093786 -0.0008035892317961313 0.8036546736341392 4144183
0.12246241778171285 0.20524301796583444 0.3504318954657988 724752
-0.03642826428026824 -0.12745218090795296 -0.02552036279418446 395269
0.1517653154002372 0.08661769488971327 0.46728592898138577 2434341
0.12938389759876445 0.20677021036032883 0.38633065790077303 658959
0.10085798669220258 0.18720403209909087 -0.07764602499393614 10260350
0.0025899250961085585 -0.005914917320138713 -0.36586349887548275 6247235
0.018994975726787988 0.021481406710159412 0.6002467285429982 6052445
0.10334515241068143 0.0476611744108153 0.76423151091467 1184014
-0.03460207537683413 -0.17730596578613556 0.008823592998533414 2829358
0.011588751088325466 0.17090616007559456 -0.29901512133195696 3682855
-0.020853661437150617 -0.24148893582584163 -0.02992246353494954 8751496
-0.20669622026480106 0.0437492746500574 0.44821832222137936 131586
-0.03143570032382348 -0.1662962030447277 0.5172864733991216 2172198
0.09745277150371967 0.14222594933806576 0.5205561302388693 1316631
0.17946704333664032 0.14564968941788425 -0.14303041099453107 10587760
-0.10737348378864198 0.11180749073321028 0.12457258872662524 2106155
-0.027173961578361272 -0.17818668483872013 0.22199091013538075 263431
0.12181853240973695 0.1229702864417832 0.2848825249269846 395530
-0.11212900165380013 0.06090001194545769 0.3710491197327086 263172
0.020980604240969924 -0.025683303553083903 -0.4638130433715708 5852995
0.03927816439083598 -0.09902645644064378 -0.1350335383684902 9667685
0.12402953719740761 0.19416662185408695 0.2872350698396291 658702
-0.02066240979519529 -0.17491391844330662 0.08551529758673437 9013633
0.0407147208174754 0.08061725140253406 0.5846727185914591 10065038
-0.0005539122719642187 0.1792725218968405 0.4731803640056853 658959
0.011049135361651086 0.0735724112186773 0.6058831743660407 5790042
-0.022154080306680868 0.1455730199969052 0.4553888075253485 724752
0.0922023594788306 0.10705208448175618 0.5155357270212659 1053717
-0.09361843391684399 0.1900102876873535 0.13505138897611024 4210754
0.027358719110626595 0.04760198599698695 0.5917630974320489 6842472
-0.11246521389945663 0.016019098574206136 0.13521372031569345 527116
0.14884382182222256 0.23264030011095382 0.31011596721026025 790287
0.12648615787307405 -0.07559006271203739 0.7982256388771725 2302495
0.08145460023002515 0.12846677667847528 -0.2372561070665169 3616548
0.13267674689374553 0.012194577797406847 0.015211129452649685 527115
-0.10995241286626545 0.07421403321635234 0.35467594734999386 263172
0.13667901601970467 0.20042838511450922 0.1994855953660113 987923
0.1342644583153234 0.16632779370983863 0.012907196996483017 7170920
-0.09787496989986444 -0.22289439875972805 0.1664924011061979 8027005
-0.027192519748018285 -0.21952545089748066 -0.01049486226833296 6250335
0.04585010406904644 -0.06427049827224662 0.8195930876411555 1710618
0.0005779216555268363 -0.07274589743565052 -0.20392249043369626 9601383
0.16581998114689434 0.059699861477843896 0.29284411922353426 593166
0.12192543797916677 -0.011897629369731266 0.8201646851953572 2499874
0.1422980160352072 0.04287238175741681 0.4860928870115371 1381651
0.0415408261551824 0.06817546848470446 0.782141200322068 1381394
-0.0139357992916187 -0.033599594264450694 0.8257140355113348 1381653
0.0023804057656775512 -0.06714870395578698 0.7297996806816363 7361104
0.039597986396205265 0.0678894703226689 0.6066931382903074 7499630
0.021258270803703905 -0.09180629173971822 -0.47783035404868146 11311229
0.036934856649610825 0.02155471276634513 0.6139619074297094 3093305
0.09386816340683879 0.008365969912723425 0.5823489164885305 8875353
0.16099124349088134 0.10997164688954397 0.22297218849485478 658959
0.10174389781902082 0.2920458998973303 0.255752095369842 658446
0.1630780103972147 0.2437559762356818 0.05036690781003861 5198160
0.14995991482147364 0.22037113450363055 0.005972472822958208 5000520
0.024363703980168516 0.11621136027474188 -0.11815438874999629 4142377
-0.07801736401256854 0.036748506962754224 0.1932650490244101 132099
0.03850426486736547 0.10781160761181052 0.5816834641975259 4079164
-0.0636667246395719 -0.18051322806750258 0.4541035195896448 987924
0.10373355121299532 -0.0759057687963196 0.2266879788349212 1053976
0.005950252898570874 0.28757937729147853 -0.530149815342531 7892052
0.0290754615902884 0.06261932121109126 0.28062742541359387 197379
0.09707670581175609 -0.06735691916949582 0.3391720531914113 855822
0.10013086993724674 0.13986680029620668 0.28894625042977906 66306
0.10376086411801477 -0.09641932525815688 0.6763830901907224 9727850
-0.0014152328200411901 0.28777563921306637 -0.4908189882539036 8417879
0.16493593317677346 0.14604784759219624 0.19786141613721453 198406
0.1323715875795073 -0.04277381525421342 0.6700073755457934 13936009
0.13003272216646966 -0.04264016502377466 0.6972104166146578 12751996
0.14233285499009174 0.14851859372140197 0.21879222755469163 132613
0.032231222584833574 -0.0685499947975945 0.09675674965518066 132099
0.045379178899561445 0.22463785635023825 0.49098969209735666 1053460
-0.029358597233773764 -0.19214929929323477 -0.04917152470651942 7829105
-0.032066627289408345 -0.19263477835401788 -0.0896726636628169 9276555
0.0014635146726633685 0.02726101085392818 -0.10856427270027114 10918538
0.001191467813613567 -0.05313434031376918 0.7079923035708628 7891813
-0.12738847680839083 -0.3023651521196673 -0.0471062500476116 1513239
-0.044975956697716146 -0.1587125083456442 0.10390651713026233 2237475
0.15872434343536668 0.13210387474017438 0.4573572377014359 592909
0.10198649344736399 0.01801253262925817 0.2486180528823576 592396
0.10965670430939456 -0.08832722173581464 0.7254066429892043 8875107
0.02455434519941635 0.2203961001408632 0.44010711541359426 855568
0.013668394178000032 0.19370495565782742 -0.28537079740093274 8347211
0.12784554951050886 0.19449994470337417 0.492979609066013 1119510
0.15633575871390093 0.20132274789499816 0.12940153682220012 7829367
0.1119525483816175 -0.02197156542080636 0.5892815982930815 6587537
0.07974816683324626 0.02471104419510306 -0.11359642136991432 461578
0.0633300783172066 0.024555150478801302 0.14240645489161152 527632
-0.12845298242002068 -0.10171787277708555 0.46344213054553296 790545
-0.13524220911193785 0.009480007319486283 0.07196379557406496 9409167
-0.00405094659735461 0.1415779209371939 0.5337497359598675 856338
0.1384303768054549 -0.06440454484219416 0.048387555220002154 11054255
0.14778984195122025 0.23021594250670496 0.19549359531853705 2368807
0.042664852720993185 0.056463386718348385 0.6605551110154011 1512212
0.07501249104700358 0.04930716945080338 0.5861301146238715 12431781
0.16108660120947915 0.13194473772363136 0.31101287501195807 329993
-0.0582262752144973 -0.15649317166803156 0.27409837240547663 264201
-0.00953079098496179 -0.03426633917992028 0.7306864223427771 1775640
-0.035266538859966445 -0.09231843778379867 -0.3156956421424999 9666147
-0.05510519425767768 -0.15927233655244466 0.5175532780066452 1382683
0.005947773589362271 0.07966967628704635 0.5823221425549314 1645339
0.1292015564582809 -0.041197532978932916 0.7314827032065812 13146236
0.03945837560660381 -0.0839055879165036 0.7673447554151662 9928302
-0.12908202943981362 0.03728209012898409 0.4150858452023005 132099
0.003862825801069114 -0.09725894900675724 0.5521926077562598 1514528
-0.11067797897936682 -0.16739121090233944 0.25740214743266465 8159624
-0.030553567073808185 -0.16021544848393088 0.13297279646795412 1250067
0.16357385226743748 0.13067649918765367 0.21169302078272967 461580
0.132187243154962 0.17236826298553032 0.19975398719402193 198151
-0.12355763181315016 0.10869247661364545 0.38558466658660673 66306
0.0020045380671644963 0.09571247322495857 0.5977277967617527 3948356
0.16295493291375784 0.19401677023293873 0.11008432201460083 8487553
0.13178495021888237 -0.011424042170185 0.6758312162700413 13870208
-0.012018169029588854 -0.10040798320549404 -0.2749371012802829 9865587
-0.03001475101421658 -0.1310576638642691 0.3086044229474467 461322
0.12365719238102413 0.019413185482915818 0.4368906575097977 1839640
0.0994941459439378 0.17117219881016865 0.5522007079595774 1777182
0.03597338732331856 0.1455780106703295 -0.34809347378624267 3484960
-0.04313643268971035 0.14623952657376105 -0.36530452614441966 4932408
0.0859984270963583 0.04078133319131316 0.5170638891329231 7647961
-0.10829187188773304 -0.003465977917228358 0.46070878232173995 724752
0.06865565297860021 0.05126926206570337 0.7881335773684293 4209462
0.028689413725599078 -0.12239007510054556 -0.16278213468130165 11116942
-0.07142790270769561 -0.056742634974594974 -0.06384028752788695 8813415
-0.21159090104431955 0.02261546774533363 0.4932626041633086 66306
0.13703112988149746 -0.016649124131940862 0.11585030790281992 8818834
0.13792195214281966 0.16555533774328302 -0.009347601705356867 9210244
0.1504916330327588 0.07514663363310614 0.3982970200522067 593166
0.12860104324306176 0.13383521855413116 -0.08117821672790904 10324849
-0.017639881626822174 0.09772222666040298 0.2968742177011787 66306
0.13573710427627272 0.16563934807289682 -0.04420838156098472 9932162
0.10357073293719887 0.02070249849519623 0.6119945665750854 9531995
-0.19307459750348466 0.06617943069787424 0.5052875319038657 131586
0.15339165784125086 0.18643091714227378 -0.007158387214116102 10198174
0.08454584641156782 0.05604930378722672 0.7232080859369214 328965
0.14039419853962176 0.16291718647257403 -0.32132942608654913 8681050
0.03499235309507487 -0.08820559361639457 0.792935907631598 2236962
-0.10951103516666016 0.17419688708679493 0.17146022172051434 723982
0.09365826066822391 0.019890168512913142 0.4546873286217583 2313326
0.06396439044767899 -0.04162627957094589 0.489283996185109 3298670
0.13285067182834043 -0.010723316904230895 0.3186644590602383 1649465
-0.0021557647217615994 0.0818991149656596 0.14372465899593867 131586
0.1335297329577756 0.15232520446444386 0.2623533493812562 132099
-0.09204504927663759 -0.2116681335559636 0.1945129778090542 4014403
-0.0857443324173186 -0.11793340269959884 -0.3601725431236593 11840671
0.021949450152928485 0.21821823935886764 0.32693235427906564 1052947
0.0983681545288908 0.28230421956068286 0.3098939240141716 987924
-0.002383795466917693 0.21330275531166398 0.030068953402307308 724752
0.10082320818800339 0.21824629334515233 0.513250101500093 1711133
0.09980756968525784 0.16343332934686883 0.25135840864640757 256
0.10970430781988671 0.132580274157708 -0.023472118151667054 5261115
0.11248698622764408 0.00359738351750849 0.22886334673410036 659219
-0.019004429847595983 -0.15312986355158964 0.49123680943901094 1316889
0.02490349923255719 0.09433112711268121 0.27125127164974727 66306
-0.21718157304273333 0.030959495099223577 0.45769058397242435 197379
0.009576515020833565 0.0553622522767756 0.6078836171845787 2039583
0.13163752445829102 0.22932822233495775 0.4598804882323919 1053202
-0.005797343165738766 -0.029833814582254536 0.7627233465852632 920591
0.1347829797015634 0.11317992686139444 -0.224422701189392 11969927
0.12581921545465535 0.14413493328488647 0.15703991611396484 329994
0.1057848305785849 0.01982959863249434 0.29165031593581303 461836
-0.002764238585925227 0.08131129538247706 0.29690231725506444 197379
0.09624621080450835 0.042017497870421305 0.8238318514439282 2434339
-0.12961671191022006 -0.13075686805343922 0.46088639556462585 658959
0.06582170982209679 0.050396712328252935 0.5520795653069748 7173497
0.10043886932799628 0.09970929731784262 0.16563991270844958 132099
-0.0968663427357912 -0.2221213940388238 0.22868765275643343 1908771
0.06972734968341499 0.10597415540926569 -0.25129057759405615 3879205
-0.13409415291985738 -0.019547925097266994 0.25807019962846867 197638
0.1120863476971441 0.13415298473044146 0.026803369313683767 461580
0.08777659288496498 0.04617655680334121 -0.09781183975920849 724752
0.002934217345373469 0.06642030375423236 0.6433668485609392 723723
0.04877099436379373 -0.10034943123074536 -0.2628094985374885 10325623
0.09139527385733892 -0.04538652681859601 0.5437810086386623 661288
0.004133278186146505 -0.09778372573757688 0.5746938232386101 1775898
0.13696550399479523 0.22021040469918596 0.21742195881188686 592910
-0.009997268673903825 0.1682336488009457 -0.3775403521197749 4471855
-0.1142733680139334 -0.07690929836179627 0.5656219980940322 1316373
0.09056760857051493 0.007796707784774259 -0.0907410791560439 461832
-0.051951058322544874 -0.05263987038938289 -0.16395699316299428 7496528
0.12355076551181599 -0.04479466885556338 0.7610228834648334 9268317
0.002054897179897708 0.22653739013572638 -0.5212993973178333 8022349
-0.12866795877374004 -0.00244162460541153 0.1830033695256552 527373
-0.05532960895172234 -0.04393371741086094 -0.10741165368377104 7299149
0.1253641430993664 -0.0479784145428126 0.1599995679613282 7764599
-0.029003640014265475 0.20736543175013766 0.4142212232619238 724236
-0.008400508933749773 0.17082477280957642 0.4440240523086254 724752
0.12879023311551974 -0.04274022738906602 0.1919380217854738 7499887
-0.012020770356484078 0.1999011774050934 0.43538513732329465 593166
0.030309768780904633 -0.04345666806427184 0.7986964502330047 2039582
-0.12675474894621175 -0.019344687660210802 0.283356434792603 723982
-0.13330058912693943 -0.007153567427431895 0.43531354043370407 724752
-0.15443240594553753 -0.10049110498072933 0.1009923941018045 5723983
0.014875533114330874 0.1601557816004524 0.5513059120121533 922131
0.2773011454312231 0.11079957985196609 -0.12692686335467984 131586
0.0496233839543061 0.2628287706042829 -0.3745664792535508 7956815
0.13007959805709923 0.08064641773000725 0.5268084222089542 2105887
0.11911823374498587 0.0713699354821169 0.5558002873174777 2237471
0.1437390254690798 0.28091307711888636 0.15399835658314043 5328972
0.1327579833641246 0.2584305491160537 0.37868623612000896 593165
-0.03876179641805466 0.0632617856962101 0.5464924454057478 987154
-0.097823090637434 -0.06851761972179515 -0.020616075021873237 6708561
0.12722510090888273 0.020237234762330303 0.34244229255005965 790804
0.12253943165234604 0.044836761939210046 0.05018990976147486 527373
-0.06568578797914348 0.1383261105791478 0.26118815473537693 461580
-0.11664623565548293 -0.07551152768599989 0.4858967581318492 790545
0.13310293115594352 0.19221201877641825 0.3925137890983086 132615
-0.12722076551336636 -0.042336903320761454 0.4756554124614467 856338
-0.02885326384442699 0.16949478034358645 0.40356299987475497 724752
0.1153636321828353 0.09017492317972886 -0.042545395301837985 461578
0.128517389100399 0.04605313685917167 0.39706102167421986 1580062
0.04097392957088264 0.1940217843675307 0.5810903426078575 2369061
0.02556451565081108 -0.25291062296149347 0.1976813399753663 329994
-0.06490512408378812 -0.072708394245947 -0.4522178984138514 7234385
-0.06611419956915565 -0.08880215770495115 -0.2597626192641913 7234381
-0.1148418397749209 -0.1377147221049273 0.2859257243902853 2895926
0.10011036311043497 0.07882465106689951 0.4895614863867923 790547
-0.07202332551810287 -0.11400774484230869 0.1285377268716259 264201
-0.11351560058636734 0.01736462394003535 0.09943788762454353 659477
-0.1571890434002885 -0.0022759807116958797 0.15302818075242763 527122
-0.11227176283153106 0.026612394581439158 0.238151284468769 132099
-0.07523998469336846 -0.192267024991851 0.2618993318191265 1053718
0.0666320126638178 -0.06470978220361534 0.49110908299931544 725012
0.16200056196524004 0.1983788435787348 0.020824234142355458 9079433
0.14812203178536976 0.22072577580078878 0.16397073463517886 6711145
0.16215637236980873 0.22654340733446432 0.0866340807154724 7631988
0.09026695775758364 0.10734090068194968 0.5692996931166285 2105633
-0.0520094274731604 -0.19581908118487634 0.07364357194393212 6842472
0.1674351261201963 0.1330697340141591 0.4005055677699527 263431
0.039413149177815576 0.16281017436050904 0.5774614801000268 1776925
0.005876498154713694 0.012728466534126515 0.5871359919002832 4276548
-0.025737538633975987 -0.2641571838255121 0.2637071417523258 461580
-0.07765815962694056 -0.2568309004177478 0.28361274851940266 1118740
-0.12736732025817465 -0.22873899062284853 0.3195622012034054 1184533
0.11354508052274381 -0.012260876067431425 0.23106820584862175 921104
-0.1406230594442721 -0.2015333888556834 0.340088055348589 527375
-0.10378007123765576 -0.19834448574052432 0.3164705924318545 724753
-0.11717422312170234 -0.19401233316173738 0.2876172494152991 1711651
-0.13662953651391962 -0.19628928551434166 0.2805559324654132 2830130
-0.12869528961796917 -0.22167866447095452 0.23782300813571666 6118749
-0.11325786697238271 -0.23790430587453093 0.18378396705540556 5789784
-0.07929312351386875 -0.25385138938586094 0.11000090234721693 7303280
0.06940039616201954 0.23324455802859 0.4637607917904436 1185303
-0.0788387400666255 -0.19105286948673106 0.30495605576594986 921875
-0.11419146587152618 -0.19563597497944096 0.2533440011278505 6053989
-0.0550076464489857 -0.16915270528920145 0.39273372711760945 987924
0.15664765553464433 0.24691993962669168 0.2809616067078118 1382424
-0.14537674698478686 -0.18698455204162268 0.2580088211628895 5263955
-0.05926326142624294 -0.23303493233338002 0.14444590187840056 5066574
0.04429492084151754 -0.28234090970961523 -0.022272313369151253 6513507
-0.1410126365709563 -0.16525436036410168 0.3394102074363805 658959
-0.0884728316737613 -0.19314254272498177 0.27596626829455073 790291
-0.074923401891966 -0.07281581465900588 -0.16274438620162401 7365708
-0.03955475131957176 -0.014552758783971331 0.694160985139965 1184272
-0.06175874404134696 -0.15919849483339332 0.24716679380887818 987925
-0.0980462191547451 -0.10988461295392904 -0.03521386743804977 7563613
0.1984217084156068 0.06622975733955183 0.2319334333467622 461580
-0.0696449645647963 -0.10412329861618153 -0.10679763049203639 8154197
-0.07475906350833927 -0.09564170745355405 0.0403727278594187 1514014
-0.01809970635714997 -0.1682236878642649 0.19636921158442044 263433
0.01299567182926431 0.10710454497441457 0.5863088501094649 2961200
0.17802978122385804 0.2607590689210588 -0.04048685055625123 7891282
-0.24281123004631544 0.04233603161064181 0.5246029196197934 132099
0.20724407315299231 -0.18010178728314474 0.09442039534265301 197892
0.16357738587258996 -0.1775032976795985 0.101990801036135 263685
-0.11829704668800911 -0.13372731728714227 0.30125104130682834 527116
-0.017488907375222684 0.1829592599707479 0.19547990740589238 593166
0.15028116135520708 0.17330802981426308 -0.2742728759071058 8878947
-0.08681634826816653 0.17150374346168729 0.12604169931134424 2434603
0.042448132249280235 -0.13122933310769413 0.09843464972199822 461577
-0.04803206707514107 -0.15522972175934768 0.04868861788205969 987411
-0.10905921874938818 -0.1325774500467949 0.09492394793362802 3817027
0.15486769064320027 0.19449376113064654 0.07095381300919157 7106156
