# .PCD v0.7 - Point Cloud Data file format
VERSION 0.7
FIELDS x y z rgb
SIZE 4 4 4 4
TYPE F F F U
COUNT 1 1 1 1
WIDTH 696
HEIGHT 1
VIEWPOINT 0 0 0 1 0 0 0
POINTS 696
DATA ascii
0.06185536701459826 -0.129954408535906 0.051345426788964255 793646
0.03325548535386824 0.0658028930828324 0.646619050114525 10979707
0.15055309592576904 0.06247207570659918 0.5602086670243083 2177367
0.15828188082457695 0.06416648393557911 0.5327662984392518 1715526
-0.014024310811292295 -0.14265774619238805 -0.2659612706408292 857629
0.05155906921522302 -0.14289534923886363 -0.1544024264545516 1121063
0.06727903399961077 -0.13041054517113693 -0.12149629657154126 661031
0.0680681390267246 -0.12577050142646065 -0.07544975220646455 857637
0.05837001315635737 -0.11942688247726072 -0.015616320377065618 858920
0.06868956152345662 -0.12510038173926305 0.017746631197579688 924459
0.07018520018344088 -0.11082619875288086 0.07273064936230078 1517113
-0.1250957953139804 -0.14135610423340397 -0.512593839390054 1580059
-0.06792995748095665 -0.1355889230153324 -0.43052636135755873 921363
-0.04891146970884108 -0.13125819191070134 -0.3767743107256226 987414
-0.018713107993401756 -0.12642284116266161 -0.3138067119048593 857116
0.04657516298468867 -0.11885083413590622 -0.20927342465772258 595748
0.06781729937385972 -0.11496715608546418 -0.15969110177488988 858405
0.06725930294134042 -0.11918021396925535 -0.10348859516039954 989994
0.06753050063706212 -0.11538538936010115 -0.04496887470710309 727076
-0.12201285169036336 -0.12894359796469188 -0.6422002249721717 5066320
-0.07585929776913103 -0.11786814380542618 -0.48816914288567337 1052949
-0.03864165924982954 -0.1139459922084037 -0.42570630890879335 987156
-0.00011788204106721878 -0.11007167637804974 -0.3633378229465323 724499
0.019975697643749957 -0.10633549298292536 -0.3096614109019933 724757
0.08278104467125758 -0.08903976955610074 -0.07263757517222702 859178
0.06685735105035917 -0.09445200825082972 -0.0343685892836364 793642
0.0671797272390906 -0.09300077785205688 -0.01735261420600065 859438
0.10844810024534635 -0.08054775345630469 0.04177809436734692 399145
0.07367528085315378 -0.07683491083693425 0.07435974471335971 1385531
-0.033288766707408435 -0.10260635364181603 -0.5745229233143696 1250326
0.026988051559999615 -0.08145484829555541 -0.2501020517142387 727334
-0.02054371070786898 -0.08561570689575096 -0.6757691223567079 1053717
-0.0005202642414321446 -0.05865935633102068 -0.4000144778816761 1119511
0.019099565082569825 -0.06677489377742343 -0.3458362103844892 593679
0.06048753809084628 -0.059122291845935065 -0.19846600152979077 1122355
0.1062705821704033 -0.05560362592831483 -0.11656926599883399 991023
0.10568907734581456 -0.05448212199647187 -0.09848407102875667 924976
0.08994983770831322 -0.057488235273180505 -0.03777837351482338 859181
0.09856253936666537 -0.0430051228062954 0.08597099474760661 1188149
0.02621430774484379 -0.059891487945133354 -0.6230996826253155 922131
0.007076455485599986 -0.05533793990132313 -0.5460334769090862 921360
0.002330642915822967 -0.05340364640872303 -0.5111066278168541 855822
-0.0011197754860114983 -0.052154647918914 -0.4888037266602334 921361
0.00035782049963373197 -0.06204019247258655 -0.4613026848007715 790032
0.006896254776969535 -0.046401347139189364 -0.3705941201241335 593421
0.006254423564344247 -0.04466838794912251 -0.33696620191796334 527371
0.10112211992937858 -0.03405893353063033 -0.06714659448033666 858920
0.12425959238767526 0.17637422042000653 0.505591954386484 1582125
0.002350534597121978 -0.03504463624903695 -0.6224659095746883 1052947
0.004466027623399427 -0.033280056143824205 -0.577507260202029 987153
-0.012696746604086595 -0.0317918658398883 -0.5552155680313866 921615
-0.009007673797293059 -0.030658010419830822 -0.5244054980557775 921615
-0.012606774606547688 -0.029625637079232464 -0.5020910489559889 855822
-0.008341147922160452 -0.027018786492936375 -0.4347322814784167 724495
-0.014678906717573437 -0.024637620395975487 -0.3816447792127773 593166
-0.011767870258732493 -0.023679937417688618 -0.35579074676881883 395787
-0.027875249771076582 -0.027522197158767803 -0.3369438438503587 922133
0.012082196710956339 -0.030088351808218672 -0.24570108169557747 925491
0.09077733941329313 -0.018798368980443125 -0.1516763555895848 1122355
0.11679415680807548 -0.02392475128552568 -0.07493491350718484 793644
0.0983745724109526 -0.023717506592012647 -0.04367442405071076 596264
0.10419118950935102 -0.013599746565490359 -0.013301553533693111 1122870
-0.030747060007661364 -0.011073021075987538 -0.6612653049500261 1118481
-0.025611975781683505 -0.006018224601231428 -0.49120958154585703 789775
-0.029354415432201186 -0.005233517584701905 -0.4698866461187696 723982
-0.049942002886934844 -0.004417838234453825 -0.46639440390215303 658959
-0.02638461807905479 -0.0037385829608418963 -0.41797063934985634 593166
-0.027831586468287206 -0.0030070993595167905 -0.39581084005659206 461580
-0.034470419749334624 -0.0022705206988557353 -0.3792913467465866 527373
-0.03319543999633856 -0.0015770415979795838 -0.35532305323605895 395787
-0.016093729624645725 -0.0009697582335658206 -0.3164580507096697 2572
0.0068131811870273395 0.0002267665600609453 -0.2519471187747502 1057077
0.11730714444868262 0.0008369517533062948 -0.10854964999771344 924976
0.12687990928963133 0.001627453863811107 -0.07214828845067489 1056305
0.11351411107393039 0.002810867568187325 -0.04862638227092142 793646
0.1121473233387027 0.003878656030245925 -0.015444855007637148 1122357
0.11397534593315983 0.001110634385640491 0.07951486451088674 1123126
-0.1036953142598982 0.01601563929141575 -0.6570873256704004 2368548
-0.13040666188538408 0.017512564410062076 -0.6300943436407469 723982
-0.14471788399694407 0.018264908094715773 -0.6180324197504696 789516
-0.11658385715785702 0.01843781400093948 -0.5619171447190736 790029
-0.1572339678338488 0.019532400228908647 -0.5780290008736488 790029
-0.049645953358345096 0.019533906919955213 -0.3953169880105356 658959
-0.050447874457692166 0.02001969597162684 -0.3732029752835915 856340
-0.024569987300317564 0.020544937086963047 -0.3038913811162871 859434
0.11726730484152759 0.020899942419248835 -0.04595598066082074 925232
0.10654380262486685 0.023937828204297962 0.0826432362903502 794416
-0.1027444553623651 0.04313432936535004 -0.4025890004481505 660250
-0.06103735599808635 0.031528335582266656 -0.3504207659311397 858659
0.06502655979259231 0.039290791403498816 -0.19814999335046268 1188920
0.1040192404743121 0.038895994533743934 -0.10371607533909755 1253943
0.11997065875377455 0.03109472657667882 0.03151450199548089 925233
0.09908835945794925 0.03239412708464133 0.06861402766273128 991540
0.1205712999332329 0.032296711757320476 0.10866853774472196 1254455
0.14962145358518653 0.09125637693986229 0.5308224675528035 2111059
0.15946958835664793 0.09409577849598448 0.5065801762098987 2308696
0.022704469808329186 0.060519870197967535 -0.23927986123131562 1188661
0.07774508317333417 0.05854649090362532 -0.16705650863660648 1253943
0.1140151482861751 0.0572990708230485 -0.024296650407108045 1122355
0.11243847366073201 0.05742657987452271 0.10114467073357991 1386301
0.07548199392287724 0.07803861102649433 -0.16997153933775788 1319734
0.09586317266909461 0.06691406706393802 -0.015247728118652049 1057077
-0.20460194841179824 0.1171296808578106 -0.6311032268459076 987926
-0.1663873471474413 0.11439527296808129 -0.5656804361512477 856597
-0.09727561093831749 0.11959308869430602 -0.4339738186061952 856339
0.08977682148867405 0.09627820066482758 -0.1379858821084139 1254454
0.10907083211518698 0.09482563956496239 -0.10127725365961515 859955
0.12105325295723901 0.09362122574116521 -0.06303773788004596 1056823
0.10706091299164244 0.09371163405888391 -0.0404691819876245 1122356
0.08825421378066833 0.09391947044970023 -0.014544684795139484 1056823
0.08313636552314652 0.09355726384416872 0.01390043759945625 1188152
0.09838292507223789 0.09166403534040896 0.0809821891914837 1319993
-0.08838775139520472 0.11724340754985982 -0.21402805143093873 855822
-0.09540732020166676 0.12210346524337581 -0.24293447872091023 921615
-0.1544782067178585 0.1387177505509961 -0.6067355864879211 922131
-0.14026235895273498 0.13694869779503221 -0.5656477585076523 922131
-0.10778608853749372 0.133946126283096 -0.5068272819887707 790545
-0.07501048447427916 0.1309623069051385 -0.4490308455071539 922133
-0.06313203230299802 0.11731979748585686 -0.36712469012762317 790546
-0.027575432097004082 0.12503396122335475 -0.31107261247869555 856340
0.022667158814164257 0.11983505721826442 -0.20139324811674708 925227
0.11204649216020046 0.1125340302863414 -0.07197968317911085 793647
-0.14812908111142198 0.11284323279591221 -0.5218780521781794 790804
0.09220368639392085 0.19261306383309312 0.4097870447567824 1385786
0.08768990793127696 0.17912364627870386 0.5620543605526036 5200227
-0.14158785720438782 0.16116391042015935 -0.5811806410163463 987924
-0.12070200729831049 0.1579501696036411 -0.5210191123867427 987924
-0.058128776444761776 0.1505816831723481 -0.39768639810348927 790547
-0.04131817719215514 0.14703937666314815 -0.32519733574120946 922133
0.025856578633507432 0.13860645409779676 -0.1796347282009687 924713
0.08974417820804526 0.13192646344420836 -0.07494804453792503 793903
0.09261024263439221 0.11705518676161428 -0.0455240659209617 1122614
0.08408687117802227 0.12064166210007635 -0.010831189549497244 793905
0.09501485828141565 0.11908473138990534 0.022974117270239236 1056822
0.0730239116243303 0.12788009564897168 0.043583379265348055 727854
0.09299029536656667 0.11447395939814113 0.07828156428711197 661545
0.09227847247343535 0.15483095721102655 0.5348896299179051 2638947
-0.15558958595448935 0.18425962111992722 -0.5576923792807749 1316889
-0.14654993599222 0.18218162110558878 -0.523247158238991 856338
-0.12557476840906245 0.17906755753935916 -0.47763060894508613 1053717
-0.04006510210942338 0.1659035037720974 -0.2822439458785615 791575
0.0018642637956238772 0.15080181631903067 -0.21203194406642722 857888
0.08193601316316945 0.15018014317381728 -0.06492452923738679 530472
0.02875561902045698 -0.15527369407262068 0.5950205732306793 2440794
0.0286897926609333 -0.1494025327047946 0.6133693222063628 2770278
0.0011215821304144669 0.19284616505623287 -0.10234412774993107 528924
0.029515416215193824 0.18133228543185753 -0.04035637437434292 331803
0.004286668606222399 0.1805143982999498 -0.012459474490706168 265494
0.005156522347842696 0.1848821912511482 0.009185169218393074 330774
-0.0037450040534401374 0.21051104304689547 -0.06653819154943108 462103
-0.04364955360746281 0.23516087396472848 -0.13384855057952993 462873
-0.027345519455247214 0.23081678468302586 -0.09340386453835403 528923
-0.020809169540143557 0.22773331007998424 -0.06228310692069594 463649
-0.0025660539009022543 0.21245785118330868 -0.03547434026047391 397339
-0.008109697120841197 0.21426158947297247 -0.018536472441045282 529955
0.018271780455345166 0.248006054153637 -0.09827156040868767 1119521
0.012412007190329533 0.24701607299524855 -0.08581247867331077 922911
0.020944457690843077 0.24248750505527375 -0.04430331702570811 792614
0.008324233155760474 0.2424477928716788 -0.03837677517338478 1056045
0.03480500916515705 0.243996619400079 0.03619319120490616 990253
-0.07091854757619309 0.1846577428672296 -0.3562075653634673 1514527
-0.06639723083811644 0.16926368018054883 -0.3284765083145922 987926
-0.0714250663153626 0.15303964856198948 -0.4463629924412611 790547
-0.08599495042970284 0.19517974633493815 -0.3169716821628883 1052688
-0.0021286499991499674 0.03539752390793392 0.5875953536724507 2242641
-0.030307270083453464 -0.03852910084747416 0.6074421164974584 9267796
-0.18471737354454465 0.1539309008700788 -0.6017943554562899 1185303
-0.008969013883314059 0.09486312125230939 0.4990728366469672 1583680
-0.04161188599595356 -0.26462072582353324 0.31800252294061226 1451318
-0.16632575005950256 0.020715970961761337 -0.5362679873613942 527373
-0.025156385687274074 -0.08832579168848723 0.6505537471930427 10650223
-0.033499568402735935 -0.09633499423772487 0.680202962280197 10974816
-0.10620952967444985 -0.07650757353921808 0.03332599770049138 923424
-0.13113897498446736 0.10530587464797972 0.05374137781575894 924200
-0.11400288930823743 0.09023757977690741 0.1988266517332089 1187883
-0.10976332964157987 0.11676296586632631 0.08856228653805553 858666
-0.024095171874651822 0.21379275047158502 -0.11613616612256239 265490
-0.01158820789948134 0.024634087412105918 0.7874827798788324 8939610
0.09280854917522419 0.09374398247030931 0.5917584315376878 3233151
-0.05304318605238301 -0.003846274610904324 0.8522072313867546 3947322
-0.1511663648565751 -0.016152343898175298 0.05096313685994924 2371128
-0.056308215756896374 -0.00676052777634327 0.8249164596104204 9464149
-0.056668675219375686 -0.0014196712125326416 0.7946278034438357 12749671
-0.15115185326102232 -0.014637238749479281 0.17422460839487686 594970
-0.1487972372343389 -0.03011275079167322 0.1929822555713454 397081
-0.14611108436429543 -0.03980760591186491 0.3169813803853416 6778484
-0.0867626551703462 0.05496868027283302 0.1073418935182725 3755367
0.11218654447484377 0.20570567857469021 0.5213344289539912 11580079
0.06614706750023647 0.14951342140368146 0.5611908413050426 2373198
-0.10130573652284758 -0.2645011846249862 0.1328939228687951 6447975
0.1542417439504109 0.20863213558616672 0.3183170151763097 7830144
0.1528755033112188 0.13356232585839986 0.2631202586290802 5656658
0.15486932782124407 0.13633844683126115 0.16746097992115705 10855843
-0.09043639710775464 0.17416201780814772 -0.40746559095869617 1185305
-0.08711464176200456 0.1459686817134206 0.05120115306708317 924198
-0.09088931505938902 0.0056817221689313 0.23278385179134053 1713717
-0.06260933109516076 0.12167829092901065 -0.3970898589270637 921876
0.17574375604176673 -0.028055826693381497 0.16349281189833764 1451573
-0.0794616342465928 -0.05933181654149508 0.8515354315517085 3947580
-0.10198213688375013 0.016575283954986808 -0.6271347246029901 1447444
0.14189786521265235 0.1458226722653211 0.1312619954223082 1121837
0.10935314076689329 0.2389921850699316 0.08034413835929699 792096
0.08604666415145612 0.2907468457023348 0.044302566032600854 1252389
0.06584737823032416 0.2895844136765908 0.014365232458120936 1186083
0.15829282826217872 0.12121684874192401 0.14426963906712031 3358538
0.13529624455943967 0.17592664283753637 0.09606959483849131 1187885
0.0873554269749679 0.27592551926352127 0.020900463728167784 1054495
0.07111620275680863 0.28165453031408505 -0.008455684326272195 1316894
-0.0009311008220844741 0.27657600570503404 -0.09817182405810532 2104862
0.17003559885105268 0.11858371643007262 0.13790855163385163 1451063
0.15347862695623782 0.12333815431282016 0.11260868237388166 1319989
0.13157681659269205 0.17911489616985646 0.07766544561269395 924712
0.08306948952550997 0.26406987962974615 -0.011898784583140976 659221
0.06268637617854944 0.27573439244121656 -0.03988160934770302 1185564
-0.00608172275483998 0.27407186240759307 -0.134223600806047 3024936
-0.1472172153428697 0.1881502015857435 -0.36232458227760733 1381653
0.17387764287106 0.11019403872068437 0.10665869169790165 1648185
0.14298241414716806 0.14557065243757736 0.07698057258224011 1319730
0.12800040296519377 0.1819019914094461 0.04624536996242545 1253679
0.11146991944495399 0.20653263878309938 0.01996414468008001 791836
0.10273114032058661 0.22285845865557377 -0.007574408475241157 1382692
0.0014307445445038702 0.25521253381730924 -0.16626602912783528 4407100
-0.1837611035948008 0.18273201666428476 -0.45231045799566005 1315858
-0.1086654041375108 0.19319610412557628 -0.4153650308982504 1250067
0.18366180152737588 0.09411337770926223 0.09668502092158682 1450803
0.1468824994856366 0.1506914814607566 0.05008476213115276 1385010
0.13116718723075937 0.1576463479993189 0.011583400140192879 1516852
0.05475217826992118 0.23902426809222446 -0.11194312192680456 3612957
0.039581291943802555 0.2612917016793056 -0.12178724716274403 8414548
-0.09525392822611245 0.20754893639745103 -0.349415543302277 1118481
-0.19837007821566432 0.17431109189967867 -0.5104761624886207 1118479
0.1794712696257461 0.06176941023445165 0.07500732652156716 1582386
0.18268419431499172 0.08897230423294081 0.08173820087671024 1779252
0.1620755747357321 0.13189802332863612 0.04776521450119786 1516596
0.13110294511140141 0.15539961505227975 -0.01648495704914754 1187111
0.12000164407006197 0.18353904460555767 -0.013942140041935502 1186340
0.12113206789535891 0.18776412247566523 -0.03359455881797446 1449766
0.05733288624537991 0.20523629901374188 -0.13684762171041975 921105
-0.052656559921587576 0.20972008827403685 -0.3105063469496 1250582
-0.15275950929325166 0.18239505543802273 -0.4909292958352407 987409
-0.1862030566799202 0.18722142701808678 -0.5282075669678832 921615
0.18299776271743928 -0.12480489519927282 0.04895394301545708 3881785
0.19678093365542715 0.06918453894883417 0.06495539017057017 1515567
0.1954708350469776 0.09169465344490471 0.06204893381437382 1187372
0.18061043768562257 0.11683121566523083 0.05077769230394247 1384752
0.173805698123787 0.10725094122849702 0.026053550107273837 1516596
0.12505899755367622 0.19021047632857038 -0.056558954415900864 1317149
0.09600868784184247 0.17866969071265906 -0.10372812801521247 987924
0.0369197185713932 0.19524866046922032 -0.20102646689727277 922129
0.023139504740900207 0.20153936929229913 -0.22379956305049054 1052688
-0.0022015463640583377 0.21702869661252047 -0.24927409598219818 855567
-0.007515545868912454 0.2127788141281202 -0.27436670543308317 789775
-0.030677262735434585 0.2123695072717007 -0.3122720151988829 790029
-0.10501199428535957 0.2117854430284856 -0.43394921121677865 856338
-0.1406055218667257 0.20454590727910296 -0.4919761339712292 856336
-0.010872557158528195 0.026880040143236625 0.7762314794981591 9398101
-0.16800183146196046 0.20494024282663428 -0.5368412900851844 1118994
0.16896948325858663 -0.13553877584975524 -0.0022725987517853152 2697772
0.1997600879927668 0.035515252360673905 0.04305297199705449 1515567
0.19723827185294418 0.0812223280682989 0.03725761850496423 1384751
0.11332054650684142 0.17673475413265408 -0.10586819663466152 987924
0.08842643996399024 0.1795361192601154 -0.1316764533563718 922131
0.0684781069389988 0.17827838367368712 -0.16461870924374433 1053717
0.05636382810678686 0.18519392874160603 -0.1848831447855731 1053718
0.021384485635236317 0.2002035361974597 -0.2598382399578987 988176
-0.005114478271910361 0.19588369546817644 -0.30383076335517933 922133
-0.03219853156778374 0.19193642028194272 -0.34881095214504376 987154
-0.06443837098520255 0.20227023300290917 -0.41340612537065446 1119255
-0.12084995602676996 0.22338214915778146 -0.49758755356914297 1053719
0.19700762333147814 0.010039995975875043 0.010390224968419792 1515821
0.20811467162590436 0.04037675791150311 0.02813180958185635 1450028
0.18211144527363787 0.05850726240991643 -0.01661050131287456 1450287
0.16864720209269102 0.11934172537959756 -0.04162811009606093 1581099
0.15197042294304186 0.15126388622109568 -0.04070855726462019 1646633
0.13488819859392942 0.161333150362218 -0.1003790840031682 1185305
0.11233744579158511 0.1558810466874843 -0.13841927862755443 1119512
0.05220249406294908 0.1806409913960542 -0.22449475147906905 1579550
0.042061377143462586 0.1804345030529271 -0.2584601479905768 1644833
-0.08918857677217495 0.2177041238236859 -0.46338624314369414 988180
-0.1530706328346474 0.20068630420014924 -0.5900478178272472 1250326
0.1886628394374199 -0.10782063377165893 -0.029659405807536565 2566440
0.19193345712064414 -0.0024174187808096714 -0.027922789511300783 1844786
0.18899155428208125 0.027772489922282456 -0.03412139419533067 1516596
0.1711298332007667 0.09238830510381993 -0.06735394630457603 1580841
0.16395738764091572 0.10165107077904614 -0.08007976257393667 1449253
0.1400114731757358 0.11039466448790505 -0.12174340307416354 1119512
0.1308145062549828 0.12750102953573464 -0.13825521398543605 790803
0.1198330465132118 0.14320538395763552 -0.15779570184241076 856340
0.09163081609503232 0.15223875556325508 -0.18992653489393718 1185304
0.08342721978086765 0.14298170452104955 -0.22063704570950837 987926
0.04067660505832338 0.15886688923857875 -0.2950293071232444 5789784
-0.02560974690120066 0.1472566269099788 -0.4090329029795685 1645087
-0.04234043675753085 0.16373358169708777 -0.4385273015687299 1119257
-0.048698811958382215 0.17946653384618785 -0.4500877320970973 1316119
0.1687868913559334 -0.14320795274663875 -0.09450466793481538 2631720
0.17900640069302787 -0.11190180956767534 -0.07773348489556153 2631722
0.18387652588884285 -0.056380438582330966 -0.042035261359129605 2041131
0.18933884690971992 -0.04642662861107169 -0.06207097233547154 3093047
0.18324219979704282 0.058493076348852396 -0.0768047110677379 2238257
0.16616542249020094 0.064662165001276 -0.10706672205934842 1514276
0.15618248942968638 0.07090955981511729 -0.1248586661530211 1185563
0.0791732536607408 0.059227410221001114 -0.2598165939526611 527373
-0.07411002884667806 0.024925197605477428 -0.5280213060549486 12171957
-0.04845625761087824 0.1371403007047556 -0.48720758826082755 3882300
-0.04352725477550923 0.163380678657481 -0.4795448631171564 1776159
-0.05189814248943936 0.18093294277496896 -0.48172644938507414 1513754
-0.057813587385044496 0.20469971277847135 -0.4863948943393648 1053460
-0.09543353439138968 0.21757955528216735 -0.5523888872640803 1119511
0.1698405398097469 -0.1148023137377698 -0.12677963608451037 2632233
0.1800721726651533 -0.04807868582774463 -0.11108386962062955 5133143
0.20800666672956503 0.008550660177620323 -0.047225524346643066 4344145
0.18574566172907403 0.038684688650701765 -0.10434460460019535 14014677
0.17191288351851908 0.04871107126400179 -0.12952071587292413 7961212
0.1504906260081933 0.041502575689004645 -0.16761258922771716 1250328
0.08619161062480973 0.03424535352230865 -0.2825130551120334 790545
0.060630660006740555 0.0356878720618157 -0.32836052598272913 527373
0.008514079046936462 0.041832407333119354 -0.4219660078365062 527886
-0.06394526899425124 0.1008318191637925 -0.5541001112570607 12040111
-0.04063013617421962 0.1446364424615221 -0.5140616649982508 11842478
-0.039220649160205845 0.16798762166864625 -0.5124582959599373 7566193
0.16860561311278888 -0.11561528267035223 -0.1633074623007067 2895664
0.19058425798026324 0.029951966164389915 -0.12910634872004145 14474709
0.05548156903222834 -0.00415910909867398 -0.37439119738517457 856339
0.0409362606462107 0.031420322160635755 -0.40239733058021643 658959
-0.031501905749842685 0.0003009827657873554 -0.5249816239065681 790033
-0.06679457925290677 -0.016174699708319612 -0.5971568304136692 789775
-0.04790125418411417 0.14963548046591638 -0.5694133444627223 12171700
-0.04351406320399054 0.18749397345656152 -0.5629448428225785 10000536
-0.059584130796982215 0.19627489430155423 -0.5926435812043838 4803402
0.06747579244375412 -0.025907392071034402 -0.391026653664569 1316373
0.054226964179872716 0.023338953711474902 -0.39767477773381765 724752
0.0017175618969620388 0.007742270149689229 -0.5148544220279898 724752
-0.023541869080833777 0.0007278680999459747 -0.5494174612462475 855822
0.03298883913798356 -0.13543848531229627 -0.4927464284703158 14342096
0.053586358869531114 -0.08937226662369999 -0.4556357966740865 7105644
0.08004073215093133 -0.026803405726814694 -0.408120527159461 1447447
0.07848763961300831 0.00261250859035414 -0.41234567701284575 1316119
0.07982865390158089 0.02495146321762423 -0.41076864084756415 987924
0.056536220279967964 0.020201337749483655 -0.45478874040115413 987154
0.03636899333806376 0.01610488213118269 -0.5368213831564705 921615
0.019321700854797896 -0.1429821739425152 -0.6089144677897111 10198426
0.07976917670031725 -0.0488211277013095 -0.49372456254816144 1447959
0.07953927969445251 -0.027483791823766895 -0.49516648074875413 1250326
0.05803910675449009 -0.008357298727790868 -0.5385722067658631 1118740
0.06041901736962618 -0.007819189152981867 -0.5808086725000106 1185305
0.08823542541793161 -0.03687867637269013 -0.5464746451051921 1645085
0.08473233913001055 -0.029864110124630083 -0.5800011799481848 1448477
0.08067349211640851 -0.06661013538700475 -0.6342434867639908 3224370
-0.08169918762245976 -0.05820721625067321 0.7603418565733568 12157540
0.08998459163427519 -0.14720761713129873 0.676500974118025 1382684
0.09074507088460582 -0.14481229104190319 0.5869533530822391 2177111
0.17767538252720616 -0.1430540773895088 0.4993682679296483 1188401
-0.08208805364720817 -0.14940140115091852 -0.35224976334609104 659989
0.15399970368392824 -0.17364910941314946 0.6077417899938069 11251634
0.11456709515150898 -0.16704458192849883 0.6050637795182985 267050
-0.046630380819528305 -0.25617011885751595 0.5186251554982511 3161689
-0.09396129848023405 -0.08970414076713795 0.05429521272996829 988960
-0.10361390850248053 0.21810411292547818 -0.5068171476510017 1053719
0.09401352684993425 -0.21879022605227447 0.5338181752995972 991024
-0.08904978358906757 0.10532337896119373 0.279545900515751 925229
0.09041975476217123 -0.1835713846520585 0.568626049250295 1782350
-0.07114200624144207 0.09112555830320138 0.14502766870968475 1120550
0.07574956266848965 -0.04776696143429324 -0.45766361323640203 1447705
0.11213465381310517 0.06668934046040897 -0.10666037450122934 1122869
0.06318879468681526 0.14735491647344393 0.580075504099484 2835038
0.019691865518501217 0.2443402682423392 -0.062266604357501754 857888
0.018122303829418485 0.17623379539049433 -0.15013585278440922 727073
0.19107185070536037 0.029243664674780623 -0.0048657146706330145 5265763
0.1857841197105201 0.017874268122778397 0.18709359234206024 1385781
-0.038921846695661344 0.1608530165258242 0.12254194205857982 792612
-0.03118736318982629 -0.028195338738717934 0.8529360154889778 2566183
-0.0440257504464352 -0.013843544723392331 0.8245686756865189 8476239
0.059022256198974166 -0.1193475479415799 0.6167305398291181 2308181
-0.04296336588535743 -0.242649889387523 0.31897248704191883 1320500
-0.03952330426817907 -0.24616400251157702 0.4191722679938814 924718
-0.06297553621900942 -0.09110214475130549 0.5008037007082808 1714752
-0.0018800723561547272 -0.07884229300658221 -0.5548247283303387 789775
0.08372363316924636 -0.08254305125393707 -0.10832253768436895 1056562
0.013643634549119987 -0.08081664257895485 -0.5790011340086887 1052947
-0.07523395917044384 -0.05331528475409583 0.7913554185228471 13081201
-0.15263055608251053 -0.1491106904031292 -0.0361651780108424 3483697
-0.08776179114547622 -0.07246708599846044 0.8428289730494252 3289650
-0.07334097616437552 0.08808950853612671 0.20493191875584982 1055012
0.007964214883434906 -0.26347212778629425 0.5292163421115967 2240579
-0.04759737818504517 0.09546615748903672 0.41211762970544474 1714751
-0.09978284479403543 0.1485131583087901 -0.2808047131463598 987408
-0.11409053626609422 -0.05741102189912348 0.013491359434938843 1054495
0.09897526987657024 0.10941613087117606 0.050294784163417816 991029
-0.042089681374370524 0.03756074857177818 0.41264991807623064 1121581
0.02772971629469101 0.06412625038592304 -0.3504568705503408 461578
-0.14976412700443698 -0.17173721264251415 0.4944849264768021 4474953
0.09861012443385953 0.2613176361708599 0.2291932357082802 1909287
0.09637804432776154 0.06637048572699997 0.08021669610287874 1320767
0.06555137681064682 0.19498130097456465 0.2082958680990037 659739
0.06267008094618376 0.27474544607781776 0.018641735951258953 4145733
0.06221882089524833 0.2661177481873668 0.04228800059036353 1251358
0.11435973725293058 0.026026617747877595 -0.10608856264201783 1056562
0.09309869305070961 0.20595551929656453 0.4754915378235087 4738899
0.09296780244907854 0.031303898569942465 -0.016412547322243842 859184
0.09525842794189332 0.21411444965698684 0.43720090318698146 4146765
0.09582753895230134 0.2393688364498094 0.3755037324928223 6975089
0.11795256299904189 0.17646289797777864 0.5908603181066934 7173501
-0.05920797708382519 0.0741175566050549 -0.19243075336228332 723982
0.11809757388417452 0.18761279835273717 0.017435146459020556 1186853
0.1267882383352683 -0.02716724370949189 -0.09860640441113766 793643
0.12406261030851384 0.21245374343332893 0.07807476491178333 923941
0.1353688014013632 0.22463467255968886 0.11934954328559177 989477
0.10592169466594559 -0.037755679783996826 -0.13666136568592502 991023
0.10697309236431618 -0.029680650675221576 0.022650021833618306 859183
0.10995601959906276 0.25032913267549217 0.1529829718487694 1580841
0.11324586829058347 0.24228118153474668 0.06090321918662989 726043
0.08381766830689541 0.003954501613425726 -0.44434938035179816 1053201
0.11031150051783145 0.032851651312845634 -0.07340237799632887 990769
0.08521966011549686 0.18301300649847488 -0.07816542826761086 988959
0.09498438724122327 0.029127043181447126 -0.14964856842471885 1254455
0.0860182727486376 -0.09566319224821015 -0.153057508427199 1055784
0.0963208241308613 -0.05701177842676661 -0.14492005037871025 1056562
0.08405209232212307 -0.049763609264850545 -0.5307842272040875 1645084
-0.025806363070090654 0.09355302620129671 -0.30807821105576616 791320
0.10030803624641571 0.06321009895657806 -0.2228078061854717 593166
-0.06893340977488904 -0.08705741823578741 0.4700414118184548 2108993
0.08079737085994898 -0.08868224868484931 0.0705453331892566 1386044
0.17864651681580357 -0.01311365929204314 0.32700251471199504 1385781
-0.05639853403955053 0.08658909237397937 0.28777935268193744 1252649
0.1868913077777119 0.005813455282323909 0.3483974048759204 1254195
-0.05186815446554904 0.09624863227820842 0.32144521602410414 1121580
-0.07534779153250781 -0.11691259845489535 0.13516771570795139 594459
-0.08692388238727977 -0.2686678789806174 0.16572677997871033 4343372
-0.08924838869985852 0.002904229370430819 0.7366365218864876 13342070
0.08281773272326909 -0.11602830953293794 0.6085855180432127 2242130
-0.0349586448910113 -0.08180717296995652 0.5267315453800709 4875654
0.0855373983099077 -0.08462275225019905 -0.13476498758080457 924716
-0.16645263628238993 -0.00823736754759527 -0.06724520389779731 791836
0.02910154634134754 0.00032095733232150037 0.6543496654574779 4998728
0.11559741749656816 -0.057038622148920665 0.05220405454658905 1253684
0.17742579923000257 -0.02283753998004384 0.27649402019143765 1385780
0.10724455098438668 -0.08188595431237591 0.02482553614535088 925230
0.10895539693524592 -0.06444491950366008 0.025640937890109683 924976
0.08105568238991845 -0.06025398463162171 0.07226137292257395 1386043
0.034759880666701104 -0.021114865788441725 0.7411316148675731 2038294
0.03588469479550538 -0.1814525938278522 -0.03816050828970996 2831420
0.018251317906046616 0.022167919439320977 -0.5275669944827805 790545
0.09178806775660453 0.23925828353176534 0.2616621794517906 1582645
-0.10154224130118861 0.011833235899153277 0.1490464526689037 1056045
0.059909678353091245 -0.11530782343745122 0.7694909065877149 1777183
0.05791629532884146 -0.26968657143412433 0.4706233769661847 3160387
0.08582976187477831 -0.2326185136130474 0.5633610698863691 2372416
0.10362564161939769 0.20439764223331316 0.4910361232330238 5264469
0.07782704209858204 0.07011330819478842 0.6049483938965288 2899287
0.14611294000672803 -0.2649496842477246 0.49659508609982694 8026738
0.028324081325168393 -0.16795203054458566 -0.12756422906394826 923422
0.03590963765534472 0.19237824908353968 -0.11639009966809066 462871
0.030696925298250743 0.19165785212998848 -0.10297615665956172 528666
-0.025506001674678203 -0.27130001895486777 0.50925872430437 3028800
-0.08061140927017929 -0.11622371819259963 0.32138951371793656 792868
0.023793319843358418 -0.05776168365473275 -0.5828274097174522 1052947
0.030091082493772348 0.18811519843729269 0.19183475236263026 924456
-0.05911901982673129 0.2317523865896645 -0.24409579175258722 1184276
0.10800557159618762 0.2617988182983739 0.05243683759182605 922911
0.036033221611466715 -0.1372846235012057 -0.19841725607844074 792098
0.15281889063378262 0.03087345595441647 0.5888051948792439 2507621
0.03860292451268732 0.042398698934239004 -0.36808643436588984 527373
0.14564322644602745 0.2116007158825677 0.13496194039071663 989992
-0.07464287285962401 -0.00928675697815981 0.43096788621379933 8297403
0.02326791584972776 0.2567787841209903 -0.16233579441721102 2368799
0.009750766151870316 -0.10246464677047787 -0.2658227152552821 858405
0.013680835318222506 -0.0881603758241577 -0.35037948412512643 593425
0.03266396706859043 -0.20011804770933636 0.03767130144397457 5396831
0.020690855223474358 0.23681112209714608 -0.19685635107480048 527371
-0.005657613003387407 0.05487218816853001 0.6361630285263864 12556678
0.0407739803938143 -0.27752461521568694 0.4755054128674372 1449513
-0.04271135710905671 0.12672400528625688 0.2844939261651027 1187629
0.008360887792695948 0.12349232467813082 0.5393407222069531 1715521
-0.005441080930894682 0.16360195043611755 0.13147337000128623 528923
0.1350873695400967 -0.15807729275980145 0.11492640324729253 1384233
-0.030548149333132102 0.15314159675294134 0.19245850567510847 923682
-0.020005276993518617 0.08920146917745689 0.4616155610075656 1583422
-0.11948481673820321 0.1879124984823561 -0.5510132061385777 1448475
0.025168099550964218 0.1830837586226827 0.3120757054368546 1517626
0.18186654071498465 -0.03146453426232182 -0.00831867225286853 4541522
-0.10236442808367441 -0.07460925550323291 0.43316284903142077 2632249
0.181738791288526 -0.0012256691875190406 0.2854111263837984 1319988
0.1399022545150208 -0.18068184848255728 0.4965058333057748 924201
-0.05188571562689859 -0.08746086775362752 0.7024921198673861 6636339
-0.05973409134494201 -0.09016881598652834 0.7372292955917277 7821119
-0.009893409602338643 0.2075681530879023 0.018399670001110202 858666
-0.0910851209931769 -0.23870936179709348 0.17207170958611862 1648702
-0.10054526321665413 -0.16410143943290992 0.06063799015366311 924202
-0.04614751180603083 0.13858824021600494 0.24705958890673374 661539
-0.06312099434835972 0.07902934017818444 -0.22668508618872285 723982
-0.06858005859336647 0.09394550915306496 -0.19353194420259867 527373
0.04496312215805798 0.23977835600634625 -0.1578895091628698 4602161
-0.0701186520716548 0.1887902177482552 -0.09432715349271281 1250326
-0.06998245458962948 0.08328671192536316 -0.2555609041633089 593166
-0.0124962786437397 -0.07515286611361147 -0.4999283029674835 855568
-0.010672609181341386 -0.0766865936525842 -0.5241175419597253 856338
0.15852675055306964 0.07262198735077766 0.5131366121978889 2307922
-0.05860616662559304 0.18713141234850358 -0.04379393513820007 1055008
-0.06834402032637854 0.17395275922511777 -0.010657276328132848 1120545
-0.07412082581168322 0.12809649156058847 0.11931207471123417 1317927
0.1513910934924394 -0.13948738511362135 -0.02475941142906235 4935763
-0.06703680872405293 -0.07063808047569362 0.6961424297323615 8609868
-0.0895617138841609 0.034174289226658355 0.41123846548866894 2175815
-0.14228749377834404 -0.18004536813154146 0.0075115746517764315 1252134
0.05535657492273627 -0.15235859764465629 0.6189277609794661 2703715
0.15845612483288463 -0.14739553258920035 0.42702938643318133 1253424
0.01159887314623731 0.20669939573352666 0.09810247820951645 594976
0.18644942645254536 0.056539667716405596 0.04909751276023744 4739930
0.06318248998031128 -0.20326796033342096 0.5836613604797354 2573157
0.141933782881285 0.18060757566488708 -0.04339166907559089 1514528
0.082272030061465 -0.08761821518890886 -0.6297989041619234 12763840
0.08981357831677261 -0.14475949034370722 0.6252242536937325 2109251
0.14001287192291478 0.1863505622006272 -0.06173830118894097 1185305
-0.06616408805501939 -0.14690620004978489 0.5308704861206912 2045003
0.029910141275511837 0.14986089247962586 0.5837683773080922 7633280
0.17165714787708009 0.15366787674341625 0.4373654111556944 4409682
0.1994593020937443 0.06559689693803242 0.4714125359845951 11579059
0.1585571273578381 -0.1618376490720265 0.5062307411845162 1056299
-0.09491574803351233 -0.09277649426254805 0.010284328577308655 1120290
0.0037388229144328378 0.1235000423286182 0.4686425409029016 1517371
0.09821815286031432 -0.14038247971930717 0.6449377273355832 1383200
0.039636094504159836 0.15604674065827517 -0.1486115393019336 661028
-0.08326129541909211 0.1107702153918366 -0.06186950437918681 1119512
-0.05803882011457695 -0.028714434044288834 0.43968861081279287 5797271
0.14908580524639747 -0.16066774001350712 0.4033393238814411 1056045
-0.0502732259211669 0.017777441523693732 0.400524487298479 3164519
-0.04163418746999259 0.06438571080779051 0.36386005758507434 1252397
-0.03709070911270551 0.06398712670645232 0.5374408666140036 1256261
0.17784505860258815 -0.035587921366172726 0.047395849424748615 1385262
-0.17111823778277024 -0.1790503977686542 -0.04616476856313145 8152665
-0.07488136322877148 0.02212348405845377 0.287728556651609 5138822
0.03676796144595329 0.17188878583809744 0.4866024636185273 1057077
-0.06445134466570046 0.033362255839345684 0.34958211769654346 924974
-0.07443124958628555 -0.16545936684686194 0.10553955182909935 529955
0.19719451555827128 0.06793234862075861 0.3192658489487643 1714488
0.17742190351347986 -0.02639372305478975 0.5631423796987485 2243160
-0.029255209020958794 0.147464455153607 0.2619752664253241 1121319
0.17085506940805217 -0.027906769032179535 0.579028982219274 2309210
0.14318916833829576 0.14162922895848087 -0.010904574692085167 1384493
0.15905670695763252 -0.14920422167985203 0.531253397433971 1123124
0.15511517637146222 0.12438973108147029 0.08561821186910579 1516598
-0.13881720620224414 -0.035625730321038634 0.264450962469873 594459
-0.1367958007055372 0.1504821153730527 -0.16395783288412158 1514017
0.11203727508139316 -0.02685543736264319 0.0814279427839616 1188408
0.10993817806388284 -0.003850952760034415 0.016075059812472148 1188150
0.10943137682665327 -0.02844394298211317 0.04853574387617632 990769
0.1270781960509475 -0.0038333394244421115 0.11033428123243982 1057078
0.10873031874645811 -0.005631437068159731 0.044492983456282276 728112
0.03480259789889972 0.14393026514616253 0.5231787874019624 2441054
0.17680790823390202 -0.054515159177012384 0.5559160072908622 2572126
0.09546767255617672 0.20662944344306536 -0.04647480858923836 1382946
0.18018099693828127 0.03086872811190361 0.47019617168523764 1648959
-0.03197970993366228 0.14811367466503617 0.22920952821444018 989731
0.20961920156545455 0.05329026836686637 -0.04606497614887317 9211538
0.0513159273801298 0.22710606012445148 -0.14724924923520866 3351066
0.031173433463540956 0.15147866487480244 0.4987328311986463 2044488
-0.05531847009869484 0.2085960411305308 -0.5223186827084172 1250840
-0.11119018433595951 0.15792488943155933 -0.4638106901463088 987408
0.17748080033190083 0.035614802505718475 0.5010463343497795 1648954
0.1563956524593637 0.18682386364462245 0.2620621820694302 9212308
0.09888364388103366 0.09223459873991405 0.050865202007665866 1056564
0.11866411376277197 0.12702853479890452 0.627158357909495 3032421
0.1262115691961343 0.1266392263967479 0.5296669302507651 2837360
-0.04463238494191124 0.11962993395623236 0.5801666167390183 2961714
-0.015939137893644872 0.11579700704429444 0.4744217638657764 925229
0.18245763361485778 -0.06026060881606224 0.5229752906042509 2309467
0.14562707022116417 0.18061344694514497 0.4373964647301727 1780027
-0.02302234951445703 -0.14214282402149878 0.8316348041791592 1447446
-0.09752464790357651 0.018103394689119173 0.34747434834205904 1188402
0.14514117745188537 -0.18219919047355496 0.595014583621039 8752790
0.17209731176486276 -0.0436440045607695 0.15465783044904557 1516596
0.00839868374703956 0.1400880205178158 0.5806727155927236 3750463
0.08923439688057 0.1520954684823551 0.5893053520382221 3162972
-0.1074412590645899 -0.07417793751202137 1.358897994463426e-05 1120288
0.1833839090529943 0.1216398994644099 0.47898208099928197 6383215
0.03845864845524183 0.1480660833412054 0.5547580325199675 2635079
0.20350915210849152 0.06441311040829725 0.04829029765295534 1384492
-0.0001909340256505132 0.08906095999183443 0.5579260469203127 1254972
-0.017067487700630046 -0.0256144376809299 -0.4075365508625832 593166
0.1309345778267792 0.07856847043012974 -0.16954493031498696 593677
0.18860543127552631 -0.05448445732499568 0.45347593102237127 1319988
0.03131665745259449 0.027745784534562376 0.6472512277350817 1648185
-0.05870256363310089 0.18680647776051268 -0.07446531968949843 1251101
0.11363983105414022 0.20097286750242074 0.03681374332178611 923681
0.02645919886365311 0.0646309065860467 0.6196276645196375 3160391
0.1898969282297598 0.06380744756801562 0.3897350292537405 1780800
-0.041483746948418165 -0.09917267834936835 -0.5298268713490295 921361
-0.06922041886904351 -0.05845429649324496 0.8018766306369252 13736816
0.00023945909724609749 -0.02845873924305342 -0.4629201240854053 790029
0.10639850237748494 -0.0512687215972705 0.6078421529219236 926267
-0.11899465160693712 0.15806635244304848 -0.333058218223967 1118481
-0.058268976173522 -0.0031215166878904854 0.5792885536120072 7167326
0.01890818995328747 0.04907242862863634 0.7420203084246786 4599342
-0.05802275248197031 0.05527622985552752 0.6673464004296925 7369075
0.14337140645483348 0.1745850362298398 -0.026050142947117605 1449255
-0.05768749340399015 -0.2907468457023348 0.25053750812456044 13027527
-0.014252081971402042 0.023932923042903814 0.5073641675287268 6522290
0.1542548185896253 0.18753045770336463 0.37926490144766434 4410198
-0.07009932230030591 -0.056014634850911765 0.40610644988838573 1451576
-0.09977087293287124 0.008369505659112236 0.17533850402144213 1385264
0.10142167759707643 0.1630052437559775 -0.15718392986920704 1382684
0.1515386004316106 0.18210226279859498 0.4116019407125411 1911354
-0.06988979974788334 -0.059649890924732246 0.3747888091895333 1121837
0.03342512625338401 -0.12324179186310252 0.6226910169226101 2044490
-0.06872260308573841 -0.14656579434857658 0.4770624870343334 1977924
0.01025647592023482 -0.061683474636972685 -0.26701047688796353 925229
0.17512693410328106 -0.031119484012495674 0.10148626520232851 1385523
0.06155747418672597 0.21833822103221648 -0.10051427166864357 658959
0.01782235388631559 -0.004866624513405179 0.8005314482099968 2960682
-0.07404437032977729 0.014721085188361627 0.687272449199807 11825512
0.1778452930581098 -0.054452039301987304 0.3793433724021382 1122352
0.18759433929973302 0.08833366583277671 0.33211668492791846 1583159
-0.06149579158350216 -0.14675882611703303 0.28624301796609464 726302
-0.08330135356483304 -0.056210940734061327 0.709736212211064 10778715
0.14561812605975 -0.11844316667479174 0.19611162824332506 1385266
-0.08278777603184295 -0.060784063870846755 0.3180306078265973 1451576
-0.012053807256013904 -0.02186835391704671 -0.3116613901772627 923935
0.030994091875292895 0.06878242311667726 0.5690045978736731 2508912
-0.09026610579137317 -0.06008999165625817 0.2868008720652162 858921
-0.07663431482988337 -0.05696825402140662 0.34938114501355777 859436
0.15526968645463146 0.12129224158884847 0.009509581637857534 1516596
0.07834985946041284 -0.08708864995498586 -0.05026637241811427 661541
-0.11100658356971094 -0.059796674821615575 0.042595115236516934 989217
-0.04943441254774372 -0.20387605856357247 0.28875921334504495 990767
0.04541583023598239 0.2230708355044078 0.16985249158925053 1057075
0.10761044610754755 0.2636064882543484 0.26642738688449774 10263706
-0.05657656556508739 0.22696989592567632 -0.28774922177456475 920589
0.13812222389663908 -0.15695003389466747 0.6241468003962796 1646113
-0.05569415971667624 0.19342578608033792 -0.42467840875093255 1052947
0.024502659703630414 0.27354964303865303 -0.10188262601550258 3878186
-0.06544337161014546 -0.12392589659744843 0.41286385061448194 1386041
-0.025359976760757075 0.11822720612180507 0.5805887041299327 2764081
0.15731013983665054 0.1272096301672251 -0.030860698373637918 1581613
-0.04959917529286173 0.07970631648321533 0.5990436144715046 3488058
-0.031392346252907544 0.08879386276249637 0.6070678837389449 3817541
-0.012932113870997242 0.12280338807751885 -0.2549746129319874 989474
0.19029609161678973 -0.024678502809269393 -0.04550197792444666 2436149
-0.06624385298259217 -0.2376628877073945 0.22363229112292138 1320249
-0.05010732584730038 0.11586190536630428 0.3793834082932539 1122355
0.049394098961323074 0.1630130023588773 0.49574959025577914 2966879
-0.1455190988785917 -0.04679053632006 0.7056711442543533 12754832
-0.11910428919242344 0.14064497369799314 -0.000826467792236274 661026
-0.09133715593205949 0.08422689876615477 -0.006642115747382826 461327
0.0021028841518613284 0.06125093747413263 -0.27990179242682545 858918
-0.05765330235581434 -0.08757571283178914 0.8535650041428091 2697513
0.055329411298036923 -0.08399981168490564 0.6462602869694496 1450804
-0.052385707098787204 -0.17960735354001947 0.5510583575742256 2768992
-0.10479140347543137 0.06102521857826179 0.2801617775602703 1122096
-0.039347527170146 -0.10096012680610097 -0.5540380447564985 1053717
-0.0669035230288002 -0.057214570915641416 0.4374597665149307 2109767
0.1733569378324158 -0.20248059182034603 0.5647152471652224 11382698
-0.05332899988109219 -0.2359935141289123 0.2892494606626106 1057333
0.16388365455802756 -0.14070011636063404 -0.13642882023444214 2697765
0.18969101865332538 0.002416758258253604 0.013164010864960884 7831172
-0.030008408872441272 -0.2670683990171159 0.41051650878040324 2634562
-0.003955148008115028 0.15808022958017218 0.16540125732933153 528924
-0.09539314614091587 0.1172075222426419 0.05169485379742289 1646375
-0.06117949965058944 0.009295969822177536 0.65820758625819 8806988
0.1889155060284171 -0.06832729568933044 0.4573400486379797 1319988
0.030371396646888815 0.17346355625895413 -0.011982068925883604 331806
0.18715542253147355 -0.0034272401562932264 0.07391562212971015 1648183
0.018744143216898657 -0.006804138530102061 -0.6163574900163662 987408
0.17979673040840005 -0.004455675575449056 0.17179866447595793 1451574
-0.09585451743737083 0.08873782051256401 0.020161042987841826 1251359
-0.013447551073003883 0.1440277407418542 -0.27707228109038007 987926
0.03531767221833437 0.2773398882253926 0.01864521154751686 2633524
0.027296252528290488 -0.08602401171715349 -0.3142756359292491 790547
0.008959048086891741 -0.1135654775248641 -0.27675402477150657 463131
0.032842558896813756 -0.021252118003847298 0.7680255253293424 1776413
-0.05619359961274073 0.1844761106777148 -0.2370289651807611 791583
-0.059054981369667914 -0.20348776575616231 0.46931857063338756 2440540
0.18423572339337024 0.09707095983190109 0.46778885192441133 1188147
0.064605237834515 -0.04835767578778294 0.7771696509998169 1512985
0.07851820745820293 0.14668667729186613 0.008025567225877328 399143
0.11301038524237139 0.14923470082306187 0.552153071635904 1978695
0.20481641377058546 0.03151200999878381 0.5268967886988498 2434602
0.1548567751299621 -0.10522919597720254 0.04715571829446308 1122092
0.0418244087963906 0.261559385546812 -0.060923046281673 1054493
0.17368583943225868 -0.09092796277206763 0.5578130045192315 1979986
0.05801061101580851 0.1697624059342564 -0.06928006508512774 661284
0.09918016884324388 -0.004430663338611279 -0.29459410469096237 1184533
-0.07406526626101062 -0.059398575056716224 0.6919415718346873 8872519
0.044276746710743886 0.2591339415467697 0.052994940790696665 1451057
0.1406655048974752 -0.1414603255949883 0.129602001110255 1056813
-0.11437731884757829 0.14652511072686417 -0.04215787796554804 1055783
0.04123685999742488 -0.08236368065236216 0.675497724229521 1448480
0.14144312248827395 0.17272508992028437 0.4661295611780114 1583419
-0.06300697754596074 -0.15186290209376502 0.44020848124692447 1517885
-0.07145655845937249 -0.06469552643166848 0.3560142936967863 858666
0.07076519325772379 -0.023839626702979094 -0.5232264201233261 1250584
0.06837016583780375 -0.045444512252164476 -0.3885405913564999 1053201
0.12869321201525663 -0.15126238806538897 0.5693670505031612 1914708
-0.018669711439974535 0.0524150041182104 0.6003437331447916 10646381
-0.0465351483878198 0.04934121284503998 0.3725475505466542 1253678
0.14003633778735702 -0.17447208025976638 0.3806670056709547 1253678
0.15708388284962638 0.21439495168158948 0.2812807733858025 12106941
