# .PCD v0.7 - Point Cloud Data file format
VERSION 0.7
FIELDS x y z rgb
SIZE 4 4 4 4
TYPE F F F U
COUNT 1 1 1 1
WIDTH 702
HEIGHT 1
VIEWPOINT 0 0 0 1 0 0 0
POINTS 702
DATA ascii
-0.19413126229124497 0.05350111630283605 0.15771283491433274 2105117
-0.14061149120489555 0.07156623119545458 0.16612445937935838 2105117
-0.14834646212720107 0.11378476521156156 0.09876985820339346 2697513
-0.0175341250617968 0.09774523956755998 0.8329103857927292 3945003
-0.020387104020990005 0.12632966422964298 0.7981041979706928 12944738
-0.01764982038732721 0.14869886879460803 0.7412091540116142 10317650
-0.017708403174252402 0.10893240392526415 0.46804074685170105 2957335
-0.027729136947976296 0.10997960067883761 0.30301303380033084 1314833
-0.004656362003518544 0.10460736308355845 0.4459991111803584 3288362
-0.011005131707762877 0.11223923781054401 0.3180893774934711 1118740
-0.02174102019815169 0.11995766683833575 0.2656806698362445 1447447
0.18543942323858661 -0.10056886020613287 0.5028490501019781 6052962
0.006175118997313794 0.11750026104690059 0.35121687937639934 922129
-0.17115525083639244 0.08368893743190653 0.13224279728259125 3092012
0.013366535325811113 -0.1505342648955842 0.6246699892551996 7040105
0.033466604720280124 -0.017865047659762268 0.8141854297556045 4732717
0.016955524536049676 0.1040062598650745 0.44453902665324396 2827819
0.015849614772706994 0.11237992444161815 0.41016522690968127 3026219
-0.2231055564353868 0.09463733860970502 0.08429135722965364 8421243
-0.1646199174427695 0.09831925465669267 0.1134882236751028 2434341
0.0411457968973411 -0.06213401361137971 0.6954831773815792 3289389
0.04011108773428021 0.09548668658876447 0.8022529896249774 1447698
0.03925119248085873 0.10865418667046955 0.4711676832678292 1250326
0.037269874088424554 0.13248899701189187 0.35152693025605497 855311
0.03483079393052024 0.1450539297447846 0.21670382355816364 2039583
0.04576182683391905 -0.11337090843515796 0.6561733014408736 11579569
0.053018986030113985 -0.05786822257949731 0.6915778429586249 2500130
0.05605815165496161 0.07609843935324578 0.8107322539940244 921611
0.04706581135404181 0.09905587464339694 0.5290403664125648 724751
0.04671685625883695 0.1062239238673095 0.49564929464833274 658702
0.04588425817173891 0.11601795938545789 0.43329516432751836 2171168
0.04539146539485853 0.12923099113865189 0.3794973731341039 723468
0.044077910303389395 0.13802714084364642 0.284622014838675 657928
0.05158309508597275 0.14385399046948466 0.20972236368619257 1315860
0.050416290167396766 0.17572782115127583 0.03020359623266755 8026998
0.0895511955159776 -0.13479015485638846 -0.0504281234680658 526857
0.0766870673640847 -0.08643573772638691 0.6641740673012243 9341064
0.0803123274015069 0.08863234763853622 0.5769570992158298 1843233
0.07174241698210182 0.09442894506356747 0.5623611179935003 659730
0.07567968849385334 0.1375649204342323 0.3877007043154449 723723
0.07636816947125888 0.1376963913560585 0.28569110529165165 592135
0.07704283956761118 0.14116481280863247 0.19273587432698902 657928
0.10733497586933341 -0.13358968920200975 -0.05529027061755787 198408
0.0755166239399615 0.18967558673503548 0.04881902844308139 921100
0.1028683943201171 0.13915050910040827 0.18076161043115813 394758
0.10454028379391969 0.15728177182225744 0.11704572900050181 657928
0.10585613897776222 0.19889600746858593 0.08570699644810043 1842202
0.10378121081400474 0.0994544745998821 0.6136855031268674 658443
0.1032475791833801 0.12253539577391237 0.47503618852321694 1447446
0.11500696612001429 0.12836173832887932 0.3326374492674168 1381651
0.12474448845100153 0.23467273576643 0.08131908417273725 657930
-0.13888848247490282 0.09644975424778668 0.10401636964059557 1579546
-0.19674536881319152 -0.05077753955370967 0.2555600138492907 3023641
-0.07934875636276269 0.12772537553129426 0.7785716834364796 9134413
0.1094614971856405 -0.08592043996218635 0.6562565671155963 9407629
0.10396975335448008 0.06470358212100691 0.594132948670891 2895927
-0.09355216910614285 0.07283640872341113 0.8098362806840346 4860959
-0.09275943332174635 0.05873710104220642 0.8161144863209336 1513237
0.12765879277263933 0.16247481380512196 0.13885102628955104 460550
0.14004762921296857 0.18511270655386047 0.13257225118591964 526342
0.13189590202162563 0.120781015211604 0.4675731659192198 1776411
0.14376347802689957 0.11981217471418648 0.3775733947884735 2500134
0.15536874658874103 0.16303384690511735 0.17126115525784658 1381653
0.1595210241301254 0.21825432434595093 0.10914146653330248 1842204
0.13834249220839492 0.15333103405671178 0.16106629382386817 657930
0.13317035204293368 -0.05170005246331466 0.6446041654245512 8421505
0.1369278278890846 -0.018993146349848278 0.6247140563470647 11974070
0.13555604314582045 0.008913153096990256 0.6198210253316364 11183528
0.020520651932500994 0.12630917209607473 0.3103847428326233 1250580
0.1670827348204791 0.11426726936871456 0.24752191466859308 197379
0.1714743882819895 0.16513831841915194 0.19083416261064168 855309
0.15549014113218404 -0.02296270410982748 0.5993569055785334 10197916
0.15780822233658 0.02931738665416428 0.5791916781614571 7171436
0.18719521931856933 0.15851711611651376 0.20826717359728975 592137
0.009996775215956405 0.1467814646872332 0.22667550984092533 2894891
-0.13672619409114936 -0.19806206882817312 0.5000672747674536 8026489
0.17140051932782654 -0.07756125040255912 0.5525185671478631 13553097
0.17157697773488598 -0.021903201134364392 0.561072489821128 8092027
0.1721987054196136 0.010766001885204046 0.5599270425822426 8355197
0.1655646046966802 0.06650146866697271 0.5543979887390845 13553100
0.20075256135613842 0.14654769560466385 0.2461127486258342 394758
0.25183171623256684 0.06887085119774816 0.5354097190727786 1381910
0.07282233763627824 -0.1708449433835686 0.07893386213432019 2829357
0.18884060501384728 0.1199395353482775 0.46769069347055503 1513239
0.19982739024356042 0.12733961076266853 0.42782852848918707 657930
0.21109418159927987 0.11801344067716912 0.45871003095037677 1315860
0.22141032415819642 0.09552206535727159 0.4903798668199616 12105912
-0.22537000170289165 -0.20445136717805523 0.3329049661760569 4475728
0.25481980818421746 0.15010253050720235 0.2782977842895308 4210752
0.2468209953958195 0.03517343921851279 0.5019794437188857 7631986
0.28110622185876655 0.11677992571456453 0.37184007628210203 11184808
0.28351022164271966 0.13712439852498393 0.3031604604869208 9737362
0.04799224516300363 -0.20575617459884377 0.17593256975500993 8420991
0.2521684555205592 0.13692869893006088 0.2985847334551698 2566184
0.07347409769115648 -0.19875929064619346 0.37826389090003987 5329233
-0.16895635230117473 0.06905678587942732 0.14951715794986364 4144442
0.2716648095544263 0.0908034816092228 0.43341293763073774 7434608
0.28377487940319845 -0.02353177042774779 0.41106436846769967 6710629
-0.16638670931888944 0.11405134847468457 0.09873262513400316 1842204
0.13269328054165783 0.12010541489176862 0.2815400961240838 1513237
-0.24750755003765265 -0.021860093455943086 0.20189654179374739 9474447
-0.009056249311319403 0.13526285520709336 0.7845206462032305 13996647
0.1544501409368608 0.038346815872011386 0.6211885243318679 5196367
-0.1505597885344479 -0.0772643807037745 0.5387813828127676 5393997
0.2228928902872834 -0.017547052961324527 0.5015853973464658 10000535
0.26279840983819613 0.06965678479302928 0.45905939289315223 7105644
0.16312641159701227 -0.1640073648547583 0.2909568151764531 8749956
0.15888151642511808 -0.17000599781240677 0.22034753849380417 7039853
0.2376019940262231 0.07297396961187064 0.5396532444182783 3816512
0.2345160961339954 -0.03308365297483129 0.4803621695036845 11579566
0.044318115639484124 -0.20390205768488312 0.08480693445021714 4802633
-0.01964895478983833 -0.11440596452153717 0.6540637625868876 6512740
0.07462845747336458 0.11263923971362089 0.4953155436713904 724236
0.1418118557472751 0.21801029659721838 0.1030960483118194 789514
-0.19076337730348766 -0.16706331145923559 0.5091365128952948 4803148
0.03879363511816933 -0.19034342455195952 0.5300424095006987 4802637
0.049527689743685294 0.08926230749561581 0.5572271689291942 855054
0.27700826094666164 0.10639107570551787 0.3986687542182846 8092537
0.10496914588389508 -0.12259491904038444 0.623577860348432 11119018
0.10252206445814802 -0.14106722990606846 0.6172241044171592 8816266
0.09798314892308338 0.13974355148611717 0.4037886434279653 1250067
0.11002473064789012 -0.1475606328766449 0.5909095887813675 11316654
-0.23226036645517104 -0.026192907777435437 0.20869693472303108 3487028
0.1630296184508819 0.009236138429781882 0.6196311894855734 8617604
0.07858125109865605 -0.17785445242014009 0.2636544250432423 2762792
0.07396269856908258 -0.20400872092924638 0.22019805354705058 7565682
0.08746259742925483 0.1802200888270047 0.07836646559686222 1842202
0.13768861670335883 0.04620890092683949 0.5931660064405556 6512224
0.28377482010902455 0.12931665451685748 0.35504358408409165 12369084
0.018140396368483608 -0.18892076817328063 0.5268638284815302 8552581
-0.258006868990281 -0.09993983675015672 0.2791399456425726 9079434
0.2749780736440588 0.15402239699860498 0.30941061317189067 11250601
-0.01783451616749518 -0.19850045882569245 0.5011747786480153 5526359
0.12678694973725893 0.0848811618577332 0.5630024911489248 7564909
-0.12211346016954436 -0.150780671790549 -0.10902693799264329 197892
-0.16896957010024963 -0.1426151343746378 0.5336670388444934 6512994
0.22950332895177902 0.0390738182939917 0.5299695445496498 7565940
0.11534943859716543 -0.15177655977976223 0.05314140574299098 2631979
0.2266856981442946 0.1615160770186237 0.23690947010568386 986895
0.2767512116024612 -0.012016637779043493 0.45812364551939877 8289405
0.07279295508168362 0.1264248633473346 0.43952346599669345 1381653
0.22862822803137803 0.008595802804491348 0.5362298200249321 5592411
0.13468855718041453 -0.16878688926150254 0.38014972076896425 5131341
-0.21929378964400995 -0.09025342618902732 0.31338744505164595 1315858
0.01879755642713657 0.10020064292167796 0.49848964873878876 855049
-0.0035145510798453017 -0.17122923933764722 -0.001209175349346947 1315860
0.1175743044132074 -0.12309584491590064 -0.03996835918715591 198408
0.03740225599709715 0.007074893873311727 0.8471227580393258 7234398
0.16113418170632646 -0.019574346485765393 0.6414814126780312 9605783
0.2360556478690484 0.07983689884131806 0.4831630152387453 10855845
0.047551024155017635 0.07830068656781064 0.5867186848669584 3025184
0.054125720234720315 0.07023037501300489 0.6076080422907354 3018243
0.054614334813826326 0.07068328422923931 0.6606232149718197 985355
-0.2277149253980699 -0.07173602851088368 0.26665678661062897 657928
0.10526136389809462 0.18237193446112854 0.10144461745805133 2105374
0.05508034444578336 0.07145316716012995 0.7106430901665516 1118479
0.17361298884790824 0.18776652130850668 0.16269551762175405 657930
0.23171133989211382 0.12302473902441047 0.4048301744749315 1710105
-0.10395420999365339 -0.051833064815321905 0.6179127814548099 4472638
0.06788890285461066 0.010733421597215242 0.6457034153064335 2236707
0.19529931901617534 -0.1013495765153466 -0.06862328949457697 2236962
0.19074964275399467 -0.16356142563004517 0.24771555929946898 3881787
0.04341268560755546 0.06843029682726931 0.8321394440044584 2236957
-0.16000831088698284 -0.1371035633739388 0.551741312253128 5920858
0.21920681520380284 0.10204620503621853 0.552286097211652 395529
-0.2401797314140595 -0.10445660626675557 0.3661202088155725 7171178
0.026249985040191187 0.09065300914961649 0.5198576587769191 1183237
0.086677400918271 0.09735731456900965 0.6105033735314885 921615
0.042968054653625715 0.03914835655232385 0.8576108817823863 2763049
0.22489871744420678 -0.10180886891971586 0.4426991982834193 6184545
0.07364106288853117 -0.08106552703024017 0.6796983328013669 6775140
-0.20323765408491648 -0.08881210664614858 0.4389635846313119 2829096
0.24200564781488557 -0.015520772303162733 0.5022663602524321 6842221
-0.0766001588809351 -0.18019492362742817 0.5377366070092401 9144461
-0.07827983596736938 -0.16037258974941127 0.5807655761275653 6578792
0.2396748835923296 0.0016511651548865025 0.5209257955202838 4605520
0.06973433545840443 0.21334396214040607 0.03484729640105122 1052686
0.2544718213351458 -0.022919297101193226 0.47240274022318174 7894904
-0.019632007914512334 -0.2093507936996698 0.22453241845754424 2434856
0.2381604694913935 0.10265905435977996 0.5364681770240517 461581
0.2788309796744731 -0.018920337423827926 0.44406954275830224 9539472
-0.020126896316004672 0.00869714897446039 0.860960157922049 3157291
0.16844352706130009 -0.12599163621415677 0.15881632530535883 4868684
0.02222124939114309 0.12043837928891532 0.37030293011462045 1053199
0.1935502110875276 -0.10767814219462879 0.4646802059396168 3948353
0.13509302349820299 0.09545117077550369 0.5344360329954033 5920857
0.10255585409389281 -0.0853043211557849 0.6864659363460036 7960443
0.2240218916867657 -0.05016122603252904 0.4997874443786815 12697791
-0.18388617729524342 -0.11157980802735823 0.5312611266425081 5263439
0.30296129112736914 -0.017483033372727053 0.38530443371774237 7171437
0.03732083410788836 -0.22491760502555347 0.06962212919911737 6447712
0.0979071012339098 -0.12807959468164098 0.643256857635016 10263197
0.07521714997850454 -0.11909831860162923 0.6558499731015727 13027013
0.011656898512369562 0.1300640636334356 0.2819204735758717 1118736
-0.15070228104329234 -0.14264077191850477 0.5427411644405381 5460819
0.2906072765001072 0.03577503120938541 0.4637529246812643 7434607
-0.00919310169954815 -0.20896065878699766 0.40388673521574703 5196882
0.30041224869979755 -0.010728637797484342 0.40135275877472976 7303023
0.2710108198048826 -0.0676122571300245 0.39348286415670797 6842472
-0.015835764713307582 0.10663662244383487 0.3749964671639364 1053201
-0.01206513412452509 -0.05355911307402994 0.8005221749659516 2828582
-0.05814133843014925 -0.20224286083182696 0.2619850541194252 4802891
0.23316176172118971 -0.05784903602824132 0.47806362277664605 11382444
0.07983219526476659 0.06500976564948324 0.6189475391539737 4010030
0.1656370052297275 -0.1514639806656879 0.37561967635935967 6184031
-0.07744631393090479 0.02797329710382357 0.8122635070518275 2631720
-0.041450492526708696 -0.21092024844809631 0.2908423679058151 2434599
-0.24671567550744064 -0.0924591337745283 -0.051872059492200306 329994
0.0664151171649644 0.05427292078694046 0.8094085131699601 1184015
-0.017020486009679592 0.00868526116720958 0.8419954390717016 7561300
0.10561946789238566 0.07100511674008525 0.6204061877824086 1514017
0.2223530650779855 0.037802688364283465 0.5516444217834539 8158334
0.03962974097261704 -0.1936404298828387 0.5670194374047727 5328980
-0.06508120477696797 -0.055555695021536566 0.6374893611451212 3684932
0.1027473280142576 0.011987454069404269 0.6301494541594924 2830134
-0.16183866820748885 -0.16576812165794197 0.5287948342333507 8421503
0.040282407550640165 -0.1958306087788857 0.43573975802899934 9539475
0.19228035974398663 0.20358121403634843 0.1489883898724006 5395024
0.08205520356432744 0.12187246862437662 0.4694762426644562 986895
-0.019422876547648377 -0.171111697549573 -0.03845271651454174 657930
0.03606604967561944 -0.12973229502057182 0.6686637335651809 10525853
0.26908267475702285 -0.0594466090812793 0.4075514485860735 6381921
-0.08043310488882877 -0.1453453959952553 0.571863473724758 4736583
0.07763841387490664 0.1478801109877219 0.11033339411233767 657928
0.27152070849812315 0.0386500607180742 0.4946075214431981 5724248
0.009388838788799814 0.06292506452881641 0.8531895559425654 3092010
0.13066694655181163 0.130168043584466 0.200685168412151 263172
-0.0731040947267799 -0.20814837878246417 0.507307639263468 9407629
0.07577920102170504 -0.12327243320174519 -0.2549884463081503 1250065
0.07324279965672253 -0.1720946179993752 0.4682157989025376 5197654
-0.2145966225632389 -0.060785502269541825 0.24785872044709134 789005
-0.13499766039743083 -0.0600303564813669 0.5510929786305369 3157803
0.11092776385788575 0.0041100652579186825 0.6437594519368833 2304565
0.06998162008184006 -0.19418666606749702 0.16709358261042995 5460306
-0.1616261828595701 -0.11396375953354654 0.5549682004586544 5460817
0.08838481563299472 0.2136583597299675 0.04189605587290879 789516
0.16320324814711237 0.009811226979878906 0.5987269130348257 9342351
0.22343669807067415 -0.11356037546479214 0.41005959018574056 6447460
0.23698192632196882 0.11661395656467344 0.5461038335663276 329478
0.26562173417768786 -0.04985475245070847 0.4326217755473224 6710886
0.013701717517556916 -0.042704076886356246 0.7053671660080699 855310
-0.18919158265908045 -0.18054799849318126 0.4430038583536845 4802889
-0.12246165667088914 -0.08025896500673846 0.5911901150958331 7763572
0.016505526341636295 -0.14588192935443867 -0.09681966460971558 723723
0.288106739310765 -0.03116778162498446 0.38202221665226743 7368816
-0.09544525832106113 0.09583444100914196 0.7956960454837515 10316882
0.2917025488030972 -0.0344498550214426 0.3580192698189216 6776679
0.13088614970535348 -0.17781214351960817 0.2845104654367471 6250337
-0.04623960368078403 -0.19165692727871864 0.5225660106221451 11775664
0.09021882277990106 -0.1903985393527532 0.27449762911841724 6841961
0.15411471334727908 0.06428582863748289 0.6271236043449261 395530
0.05408234528668887 -0.19711488903641794 0.26768431014588334 4670788
0.015750935374303443 -0.04574741245679359 0.8196991468961053 6507583
0.042765025795210604 -0.08154829453877743 0.6779681191809767 5590607
0.1599021974177587 0.12026744967323544 0.23159879954969942 65793
0.01210144464561852 -0.03372267752869196 0.6727761750913156 920585
-0.28251986505508275 -0.11104302307665792 0.24090183868133808 3750201
0.20749873096752094 0.12918968143341747 0.3468651453127535 657930
-0.06813209153398253 -0.1926103845477155 0.13798004718368462 3684408
-0.1203121292424049 -0.11462567452871109 0.5652597890348533 3026474
-0.10356289305802258 -0.21044340821406493 0.4678282696771977 5197650
0.19856622092971513 -0.08102416104560473 0.4966117620040452 10460831
-0.20652497367075065 0.11083781164407325 0.07258580527834824 1513491
0.2138165797142191 -0.07131903538127615 0.5009197902773096 11710899
-0.27150772622864927 -0.053092139220011214 0.2108455899007179 8224384
0.0735559344708337 0.05364462248971302 0.6359264714809937 921104
0.07262017586303965 -0.007930628924485594 0.8582965240517232 3157805
0.05956595992742236 -0.19233495327787886 0.5642192364559254 6973545
0.2569957034215842 0.11880739029590925 0.38181819964687513 6973544
0.009494643214373155 -0.21854325263376506 0.3064517940508845 4539719
-0.046078111898560606 -0.2119305283537979 0.4113448119938149 7631480
-0.1741631366023739 -0.21811870937069644 0.28417790934962717 2502967
0.044373432576056304 -0.028832647991109628 0.6587943412649165 7494482
-0.07929104264369143 -0.21190362467715362 0.3378858673600401 1513496
0.1996887035689476 0.17966951473101078 0.1972978243684239 1250066
0.1358715860258851 -0.08023796141938688 0.6484080352466731 10329245
0.24914855942783146 0.0995494629989564 0.4392511477219626 6052699
0.07505275078475926 -0.17590894293504278 0.5902049308729646 8947340
-0.010283239401824518 -0.07011004297649737 0.7813640679391632 789774
0.05314583451003774 0.12649901657779572 0.4094755774766067 1052688
-0.21108605639229736 -0.07141973766381882 0.26870028525618117 1446935
0.011026757894806005 0.0387177874365624 0.8503401406234284 4735805
0.07501167016531995 -0.023190088602901282 0.6433965723301492 2960176
-0.0743036512889 -0.18592701578155424 0.1694952238445332 3618617
-0.020269524388968035 -0.019163684720224783 0.8523098151107925 5656392
-0.21301973951334724 -0.11069657243220576 0.49860055747541254 7105644
0.22112492545319398 -0.12886416673879497 0.35937314418520006 5723991
-0.021886298457131415 -0.1996576615256782 0.07769717876044846 3289650
0.1701112840964852 -0.05222531447014378 0.596499607133458 6908012
0.03836836133803445 0.08910616301792595 0.8284593222933953 2105116
-0.13882565989882997 -0.1745071365337313 0.5324403595883774 8092538
-0.20252098476827227 -0.002365163122575731 0.21681221230077619 8750208
-0.0698907246823091 0.08542000778682346 0.8274356756000706 7564379
-0.2433836709594763 -0.17619291749046873 0.3215305907498557 4080195
-0.036204063117949964 -0.215083604722209 0.34006387141859584 3420723
-0.07925050912148533 -0.1718575218771129 0.5616901764710421 10131865
0.13431299832976337 -0.14885270426465702 -0.04668770102105524 1644825
0.01769865599423809 -0.04563630075026448 0.6623696692996547 10255213
0.04024950984266551 -0.0475594102212743 0.6622271830128325 9864064
0.1042464784750479 -0.16774838375760848 0.5595602142613622 11973814
0.04369836841384617 -0.13450300584190622 0.6504427484790295 11710641
-0.042099183826997705 -0.04434131700935329 0.820469939683336 2433824
0.11132891394760105 0.02892721174678492 0.635021559925692 1976112
-0.07612207989130637 -0.044490000070903535 0.822519925489433 2105376
-0.1079353059317915 -0.22133182052877953 0.3479886010547323 2106405
0.2747214878609513 0.008907061890800816 0.4723245537697195 4868682
-0.010808300590885667 -0.21259989256449097 0.37433069441275857 3618364
0.3089246908902388 -0.01383224732679178 0.34839476200830444 7171437
0.05100384494125004 -0.19781514635967234 0.41356706265446286 11117990
0.13350480462145078 0.03824675054409754 0.6205253682778961 5920348
-0.04385799067062392 -0.19835654504062128 0.10164349933403305 5329232
0.013396365113580944 -0.20176631770532172 0.177815839224568 3947582
0.011011565985596411 -0.11663701629503043 0.6555374769212162 6776421
-0.01923702650976669 -0.05198328308090128 0.6624579425234972 6308409
0.014762080643257236 0.09438974067876649 0.8320884631073758 2368286
0.19165665548814212 0.12532167698037577 0.28609257873203464 657930
-0.04603838952004759 -0.08140198528679277 0.6533990838495504 5984600
-0.07817747569268547 0.004531962986267235 0.8075113184428738 1776411
0.012234794467108595 0.13247983104254957 0.7731238398078163 8409912
-0.16388227935304486 -0.18941376403024623 0.46365000674058277 2698026
-0.0442526775252986 -0.14090170684888326 0.6184053632688645 9408140
-0.21794135991516342 -0.0935001913054565 0.4013503404965334 3092010
-0.012810074952140343 -0.10504074469755786 0.6684644927853082 5394262
0.2206836531029662 0.12129282765837113 0.43678140738193394 1907740
0.07959299119874907 -0.18300243007281314 0.5585034804202246 11053223
-0.08465617116253805 -0.18448235860825524 0.11204623197528707 2040097
0.055744750664074305 0.07704472724725975 0.774741916556344 987147
-0.16800267097704252 -0.19376690131984908 0.43956363624035977 3881789
-0.07417054532113926 -0.028320067070279453 0.6310215942197549 3159094
0.08309726977470339 -0.17527661718104248 0.44227218851518424 7105652
-0.012611701604274522 -0.21573308086794918 0.34177786272417 3882561
0.24974924945549307 0.08603290830805266 0.5509044057191975 263685
0.07430441928569245 0.10552400268862183 0.5297060254290568 724494
-0.227602865265408 -0.1611494265685257 0.39784281733959104 6579813
0.13105389856658498 0.0695168011836006 0.622628778887521 1514014
0.0027829135904490765 0.13512353106532426 0.26047782099686867 1315858
0.2936182750549289 0.06834770910831911 0.44611962977015407 7631986
-0.13849596874023049 -0.2346727357664301 0.32740072201000203 4869971
0.10038140519300023 0.091996668749736 0.5633050476475171 1842718
0.1493906031078064 -0.1582516683765799 0.391398415529716 10657439
-0.06208280820794024 0.053175657004645105 0.8466738157614088 3878954
0.10407088115426402 0.04081744398916154 0.6199687854288104 2632756
-0.17563694252881923 -0.07155533749560972 0.47180588074633534 3486770
0.10426929810843136 0.13109134018160984 0.44167035786046716 2697513
0.25310510054699453 0.033929340115840034 0.5250556453489629 7171696
-0.013937441415567992 -0.21283630407229992 0.4503064837596048 4342087
-0.13591155223483622 -0.048927485373781 0.5442667148572838 2039835
-0.20062686153535467 -0.02432411497996867 0.22996873213921531 1709074
0.0687374071391369 0.04221780862367985 0.6520484913973575 921100
0.12634960586621316 0.1294281182985677 0.4336936571887181 2829097
-0.1869145246807334 0.12090851873485808 0.08079223001437241 1447446
0.06649369087460757 0.057391943467193784 0.7834549444850462 789514
-0.21703862428266438 0.0826957724474282 0.12212015451696712 3749940
0.29867579911642184 -0.0015954995801913396 0.4124330453804729 7697781
0.05084751899091153 0.149470176214767 0.11979836485660333 1381651
0.2500038880674951 -0.07500326397059931 0.4382135957793415 5395285
0.22487679931547258 0.009451211448874286 0.508020414101907 6579300
-0.06804211126743062 -0.049542120316748206 0.7155321845563277 9078656
0.14841316357801113 -0.1509597154972715 0.4094672278793928 11117479
0.26989100102018837 0.08743038574797724 0.5071030372809441 8421504
0.1839071507875835 0.13039728308292275 0.24681714517883513 723723
0.13303916449458683 -0.12102104528383795 -0.3354372889285905 1645338
-0.050403296624290675 -0.2011440507507286 0.31930088648174004 3618617
-0.25299438710334543 -0.004723208954851232 0.12564676751503845 8750720
-0.07289548053635747 -0.19075157215437344 0.07894907678583996 3092271
-0.19297872519888115 0.09717066762544402 0.10340339763182604 1381395
0.12994560132484664 0.0248394744981989 0.6411535681836119 3354682
0.11451380431692162 -0.15897462961489983 0.5220774732516308 7303023
-0.2027790236062063 -0.1738399974660747 0.4099435922604072 5131597
0.2296205255069458 0.13050880072196036 0.35743831507716106 1381653
0.22856322982421287 0.17622920345877668 0.22064576776367228 6316128
-0.23605837602892552 0.011532514342618816 0.11994373150831172 3225399
-0.07488567512474015 -0.21605311403383665 0.4217000275269015 2302757
0.12778551292676568 0.10839039339509127 0.5013708911015041 3223857
-0.20723622169975583 -0.20948154157591625 0.3460233317592444 3618874
0.13376103483470667 -0.1624738914856384 0.4012090903826758 10196377
-0.01005994060772547 -0.04223283885588003 0.8255617344458942 6771783
0.10270795748193232 -0.0499663484841264 0.6573917478466412 3486773
0.2228734885410306 0.06713022033155869 0.5484552633697953 8158596
0.03579037829267542 -0.19382036226785904 0.21029679160012782 3749950
0.011382478162242665 -0.1995945874024081 0.13820892274093055 2303013
0.1295156835828152 -0.17498309978151116 0.3185305311574328 6908525
0.012379815791764642 -0.02425706844291986 0.828118173335406 7954255
-0.16760802141990153 0.13063021974369404 0.08799222484442548 2434341
0.1287020482558542 -0.18336193740441398 0.11091489368568219 5000268
-0.22815889117667976 -0.053510921160528024 0.23294139293759775 1316117
-0.01122422086454472 -0.20081323577454768 0.16537340219565644 2368807
-0.1822834784983043 -0.1520467588784148 0.517515634958864 8618370
0.08479257984770489 -0.09638920563592424 0.6954702873747481 10394016
-0.10768922649326046 -0.2185782058774225 0.2613509520897971 5856090
0.10428437162162194 -0.022171810173456707 0.6433873132701421 2632238
-0.015065452785722494 0.13128779688338776 0.23237211113987588 1644823
-0.16629937757889388 -0.21893191946610002 0.25424351065892015 3159353
0.20293025861559597 -0.15137385157045524 0.2999619811970945 4342340
0.13035718719333364 -0.022543724916819774 0.6550441404001822 6118238
-0.011665888158112647 -0.21814465161959795 0.3132118567999683 3421495
-0.06676334195260326 0.11966727226182572 0.7918074134637901 10379847
0.06749570260333784 0.00690764033185487 0.852653042950663 3355184
0.07011390882501886 -0.009542445788819798 0.8230027301333608 3881012
-0.10344935726777421 -0.07957237845113085 0.6152774645401856 5591378
0.3014955878434352 0.1125944619778021 0.3986506954947048 7631986
0.16885035566207143 -0.13460721892202665 0.4393320714388619 9012878
0.006200464808605061 -0.06916557287122627 0.7800279602372414 921102
-0.19704730429036618 -0.10716399274029531 0.5091948785113593 7236971
-0.05952656303460979 -0.03916672793536491 0.7847270298778136 1315860
0.13140092925880606 -0.1161389263304069 -0.27789605781009896 1579291
-0.22088538079230005 -0.0372234242474383 0.2102143658051504 1513237
0.02945854700194106 0.13273162755200896 0.7923555582907215 2237213
-0.2841313280285026 -0.021331134215480496 -0.04171072663877051 8290169
0.007753415814163445 0.1209996312840117 0.7945836091310684 11103820
0.1889386503617281 -0.10495355642707926 -0.31374447552303397 2236962
-0.07849290822060648 -0.05129053770210712 0.6304078066782713 3684418
-0.049307269725019406 -0.04028639458946026 0.7074699663607634 6116684
0.043068248041491036 -0.149116522559408 0.6303002624660697 9934488
0.10426672141916818 -0.16251118277425824 0.10946922752323274 1250839
0.2311648873897222 0.09802691721794465 0.46793926672837316 7960697
0.16198576074868484 -0.11323031261033767 -0.21807362594744129 2171169
0.00675548942977966 -0.1834914487685696 0.5738187375726035 3815742
-0.22694809148907596 0.04413645225644247 0.13648562884864335 7303021
0.09763704742850846 -0.1904239815614014 0.3170709610276704 5526360
-0.017165077899131437 0.06951963232871561 0.8535063404027298 3092011
0.12004048201967157 0.1390328171559907 0.18179939360310404 131586
-0.014371979730385426 -0.04490077922273972 0.7265837354898462 855564
-0.027250673537768055 -0.05595181691375817 0.7768528636210262 1183247
-0.18552638927239262 -0.1624642570933701 0.5187684399890268 5131854
-0.08892416398787181 -0.21877637968722285 0.4285409266743857 2302757
0.1302136046285273 -0.1114863851020772 0.6245638038278355 5789790
0.11278806354241769 -0.15591661184896854 0.5720982773323989 10459555
-0.01641957074418593 -0.1869981549286941 0.522560304316782 6249826
0.2000135018074277 0.06530340571458326 0.5591664624476799 8552839
0.1866864848632757 -0.09556969690079742 -0.2726635836239132 2105376
-0.13265335521970914 -0.18881709435930027 0.5264545692742394 8224127
0.013199492886852293 -0.08887423536625327 0.6705475803230475 5919059
0.19274081892454611 0.008503694622428615 0.5765638848881843 11447980
0.1923700463974777 -0.013198808480102686 0.5793340234911465 7566708
0.2019543179879644 -0.09481371253147575 0.477561072784806 4211013
0.21044467925472257 -0.1267667336423498 0.38929808342860583 3486518
0.21646447870839938 -0.13864455503986517 0.3272241630514868 6316129
0.17980426391805196 0.06887842039323544 0.5760734642194788 9013897
0.16694530381237735 -0.050184803606256656 0.6175336620134851 8552837
0.17924159544232635 -0.0643528403249749 0.5756765379552279 6908014
0.19783283285269707 -0.153233826578401 0.26389124889552773 4934474
0.21318653032005833 -0.13856214462643335 0.18318023067250955 6974056
0.10517822035098853 -0.18143435889703918 0.3347371756260621 3750462
-0.19778090288316497 -0.2259705819850928 0.34110568855776513 6579812
0.15987991676934313 0.048415573300792825 0.6616818609856455 527375
0.15624941372927445 -0.07929006634367541 0.619364355264214 8158335
-0.19804772925631403 0.07499847912029034 0.13054244662885894 2105117
0.16482937197502814 -0.09190012833203975 0.5892553422825003 8421512
0.16001918802052487 -0.11157701523692065 0.5640023579949364 7763066
0.16982787530089286 -0.11090477739972227 0.5230970773530047 7894653
0.1739425949485872 -0.11943987917629306 0.46904100163638407 5526874
0.16828877490167363 -0.14182859804234083 0.4114152754224144 10723234
0.1921739772712521 -0.17313082288004022 0.22862711020181925 3223859
0.07440925561558567 -0.2084426670995173 0.07614178022404527 2499621
0.13593992872571617 -0.0542984747675902 0.672386102154858 6709608
0.15003210805689784 -0.1055587414944199 0.6139766919390094 5000276
0.1521444417380519 -0.10775250676328707 0.5819703731923896 9276564
0.15541488957042385 -0.12889188306544797 0.5312751818483369 6447208
0.15802646378405502 -0.13043426316305595 0.4917795454815047 5723231
0.16021778297401593 -0.12906004951431405 0.4588111518711059 7170934
0.1608473415694288 -0.16281654461637673 0.32795158550035375 8092029
-0.19351502175077365 -0.19903040932542637 0.3787640549603125 3618102
0.16512396670175475 -0.16732619764783618 0.25743751168130846 4671305
0.17638089918412483 -0.16706733415965713 0.2125411164664549 5723993
0.17908980613071376 -0.16918326884661572 0.1715403002476491 4342338
-0.02356850335552757 -0.1469916187799012 0.6239424877146612 7829364
0.040539270182674225 -0.1746759521208825 0.5970012517391782 9802902
0.12657961735626475 -0.08172646904737724 0.6752123262208022 10262942
0.1330653208949412 -0.13948280673652136 0.5659589412373532 8881291
0.1371913887990889 -0.14405662007220343 0.5294461703707766 7828601
0.1417195904650372 -0.14591402582401114 0.44246053277594866 9210256
0.15139694731277845 -0.15841236617343746 0.35541194084674477 5657687
0.1661147906184445 -0.15828633224349686 0.0915248367509337 6184542
0.1781277773097594 -0.10378417200911993 -0.11981436777005261 2105376
0.15941638279286588 -0.11061887706180384 -0.16106483771953084 1973790
0.040907096985304314 -0.02020023743373678 0.8262852631852803 9203806
0.22270413403990755 0.019668289138048967 0.5479578794523995 7763576
0.12527513470178983 0.09650389776449986 0.6118555183030497 526857
-0.06195159178279534 0.015187726418372516 0.8482783826545807 1644825
0.13188577233925455 -0.16805772704653044 0.19329772088771746 5000014
-0.0704765173157421 0.00964111651364885 0.8262789179806153 3026475
0.1308323540143961 -0.17278696139794303 0.16657397239501448 3552823
0.15066023851172197 -0.14008862563598545 0.008787377647179295 2697514
0.1652925221817372 -0.11204812012071275 -0.2910374976140012 2040096
0.07727542873320531 -0.052563351667294866 0.6570468738516749 1315859
0.1024736033267232 0.11269733325552544 0.4978808081406464 1776411
0.0689771088391026 -0.056680805777512444 0.6751982420896242 2237734
0.10142373890547021 -0.05757720877838479 0.6739608708299764 5131089
0.10202637703892711 -0.10756456260825753 0.6773130322331659 11381680
0.10161528335294098 -0.11391362674901995 0.6514146937423339 9802646
-0.010567688638026818 -0.16049149523250328 0.6182765464215146 5592919
0.11610129972716035 -0.1521051120411805 0.47715968913979967 4408133
0.11692239288524772 -0.1556084054949851 0.4531283581505977 5460568
0.12395423692590748 -0.18038776790091826 0.24791514448999397 3552822
0.1394455917239059 -0.1218618722965199 -0.1913720161497955 1776924
-0.14052809210560613 0.13002597033330854 0.08654466172538955 4144957
0.10223114356690108 -0.15869754276539638 0.4599594487677542 4145221
0.10380155764784596 -0.17630416838003204 0.2505592077397788 2500135
0.04426023164128584 0.09108230006058171 0.7419346670419461 855050
0.09913982001308827 -0.19315137915279013 0.2370486554202086 3684155
0.09877699034305179 -0.1937162518884027 0.1683495505619127 3618616
0.1097327577169965 -0.19498123246172594 0.14461947280854537 3355443
0.11147378394493188 -0.18909445270395253 0.07369027243928505 3750201
0.11780271162286057 -0.12630099612701406 -0.1776195112498321 1316373
-0.15421711911649405 -0.21747645030686902 0.3869397208322779 9275273
-0.04132515268416155 -0.21325979547218998 0.37603858484173636 7959928
0.07343201622934026 0.004572579876622851 0.8261521864205584 2960425
0.0759902829643215 0.03894477338312308 0.6261815899190145 1184789
0.07977032661334973 0.014020592884297467 0.6285700166785432 1975853
0.07319794668778917 -0.11087480506366176 0.6798710601486534 13223112
0.0808595840407281 -0.18403453949058668 0.4164905854332003 9736598
0.08098488830478762 -0.1916179394829356 0.39841075788731717 9143945
0.09128538464954736 -0.19521450006482532 0.19544951134485122 6381923
0.09260841563281313 -0.19735700244981136 0.0984299387489097 4802889
0.18001822495846384 -0.07904791610816353 0.5660293303534057 8223874
0.09447635362532955 -0.17365944559673818 -0.031317850932414015 1250067
0.09798090599375067 -0.11804595300991427 -0.2717278159400335 1513239
0.2521385028437335 -0.04719912759178346 0.4601927940284062 6447201
-0.05261511207425626 0.06961295123832356 0.8345251033730406 2762788
0.008379587422693319 -0.014840836642513233 0.8482225225935037 10323831
0.19412523279972285 -0.04194795651272343 0.5600481931578108 8157568
-0.2592559282786251 -0.04428357105429426 -0.27401257273620894 131586
0.0728141914022897 -0.09753791200022144 0.6973465354592113 10523806
0.0731600030795726 -0.17699966504080467 0.5005003867655203 4210500
0.07362134077215424 -0.19708869852420252 0.33427847101209085 6447716
0.07370612796384957 -0.2012231693103853 0.3032329996966231 9933716
0.07308165320172474 -0.1949356245924696 0.2569944853019458 3223345
0.07429480736130348 -0.20362199158781258 0.117195118803339 6052443
-0.16739334683949783 -0.22740328923517383 0.3519593642980062 6250079
-0.041485167979569276 -0.21314615392205494 0.46854736682522813 6052447
-0.19363797357918688 -0.17313811294277837 0.47037570756078295 4211012
0.06519489422366262 0.03509808747252108 0.8264989079189228 2236958
0.061802408360105754 -0.052234591751601944 0.8037272219550461 1842718
0.06053720607992055 -0.1287135436583282 0.6669029822053768 13683917
0.051520633442581176 -0.18357003255631532 0.45022439988868135 7894652
0.04727926737157026 -0.19952588699206952 0.134908695525377 3618359
0.12810706975137306 -0.17368313433536353 0.3545344979523496 4605768
0.04668993298995852 -0.06071561440909967 0.7731609177855018 921102
0.04079869391615226 -0.02127894490106963 0.6788418046133303 1117709
0.04252855445427517 -0.11226680855073612 0.6810744700674375 9933462
0.04215267580205459 -0.16235489332367647 0.61617470408114 7434359
0.037919875462994274 -0.2167003760023044 0.1017167917760261 7105644
0.26059404955055476 0.12973757639683592 0.3554970175303581 3223857
0.032533766806466025 -0.048590676746646855 0.8174928547840369 4603190
0.030743939695967226 -0.18516769019458257 0.4870170188314026 5394775
0.029943469441669562 -0.18734251090455212 0.45898405482989124 6775915
0.02067869009081874 -0.20728637601318 0.3996831634230068 6644581
0.027205373284643064 -0.20888050182930107 0.36472408263038003 3552824
0.01470163477164474 -0.20637823870807614 0.23495916160389163 1973791
0.00964424112533721 -0.20591157535757076 0.08609812839729036 2566183
0.0315639875978386 0.06460942094257072 0.8521696204365282 1907994
0.015454872020910115 -0.057639872077171805 0.7414811405105645 789259
0.1724550382022703 0.12323191364729946 0.40069676993667847 986895
0.2504732694324453 0.1624844300521988 0.24748088681566804 6645093
0.006744195285592336 -0.05878032723101989 0.665530243120258 7562078
0.02371463028054202 -0.1280244269176768 0.6655657255018813 11709616
0.01547280203998222 -0.13844398958733406 0.6473390091755168 7894649
0.03407199115901083 0.11006011627732437 0.7732172110308112 1182986
0.012609253221325 -0.18917604323899662 0.5573124268217583 4802637
0.010191369404749545 -0.19188864874636236 0.5022560439613523 5197138
0.0071778470074161105 -0.2064031135447706 0.4345695837794491 5263187
0.01193055771046686 -0.2103680223571991 0.36856612884902773 3223605
0.07465227282940298 0.06907750862177597 0.5930350028114727 5195592
0.012588293974900688 -0.06864735821119627 0.795594661133964 1644825
0.004083922548431346 -0.18572631875329348 0.5197650580953354 6447205
-0.015568225779577366 -0.20529221001264808 0.12233762895079969 2829099
-0.014636191411407262 -0.20551919781796701 0.022978936408477035 1381652
-0.014131298446913854 -0.18265629717355136 0.5576304521426984 6184033
-0.022525430903391486 -0.20991257121197593 0.46659160818212786 4605259
-0.046701726489708426 -0.2024255462492186 0.16825035728089544 4079680
-0.03706190586604714 -0.2041611046488362 0.06314256571945365 3289902
-0.04608900938684975 -0.11964539142008057 0.6283115511532099 9407114
0.1954222455688708 0.03881976500512985 0.5628012290099856 13421259
-0.01718255990007317 -0.025740504940403697 0.829957177450429 6837833
-0.01809934732764143 -0.030233110541073915 0.6766971809777785 2893087
-0.01688454897943914 -0.08828664436382239 0.6679345956048978 4931139
-0.050044201629739174 -0.19003630970590746 0.012028546929663486 986895
-0.045917548927872406 -0.1971917769935544 0.2011461534627662 4934477
-0.017302457016003275 0.038209692896321035 0.8546775309608864 4275255
-0.025278389600245726 -0.07809748804572114 0.6646288614875949 3289139
-0.044956861481532384 -0.18100081309312066 0.5569593827273366 7894906
-0.21279558892830058 -0.13734166075183918 0.501177338369149 8158588
-0.04583216834580443 -0.2056446676508038 0.501338308094161 10394012
0.013444495335811851 -0.11013223145158313 0.6746574435812828 8617347
0.16127402404874316 -0.17130696096947395 0.17735210471877172 6512994
-0.04241527873586359 -0.10494793632681576 0.646436365128137 10920613
-0.05193788504793018 -0.14755843899407062 0.6005622004713468 6908008
-0.0637225324043095 -0.21549289426142593 0.38180627206724116 7434096
-0.08290456964759592 -0.20196969769590956 0.26125626544388025 2763564
0.02264568396571856 0.06776671064913709 0.8435270216008411 3749682
-0.07137146274917999 -0.1942777045200096 0.5232202864271266 10920356
0.10633160897539387 0.2162588694656049 0.07598303232303538 986895
-0.04531512413137781 0.04035301880849529 0.8521964288788458 2565926
-0.053812163390481685 -0.04657420046832439 0.7376985351739028 6377804
-0.0648952570550134 -0.08217495398189001 0.6397133323917313 9272965
-0.07277659845487916 -0.11145322016860981 0.6189745821129268 10394012
-0.06873303893982494 -0.13423611128569524 0.6066304167832687 8881542
-0.1055615909185108 -0.2230125151339606 0.3782645332730151 2829356
-0.10621167359426642 -0.22238040981100293 0.29299001260474566 2237737
-0.0537403040617116 -0.027094156560769633 0.8143670898800154 3091240
-0.11104709089433944 -0.2186952951058816 0.4283348413059834 5395028
-0.10712040767774586 -0.22266538084671184 0.4003273401208526 5921370
-0.07416802992541223 -0.025487582179987478 0.7572302879786793 4274229
-0.10413446055528142 -0.14618509779716937 0.5665280893398968 7828851
-0.10614692915186014 -0.16733818289995772 0.5557662316692683 8816006
0.09642147525238631 -0.19043915477988005 0.3765652778930023 4013633
-0.11039255172815034 -0.18068376173508083 0.5387489021419959 4802636
-0.12975589719104658 -0.22238947368879736 0.3996184228704244 9605008
-0.13642622082097647 -0.22592519499586305 0.3736857175877505 5066320
-0.13244238651604406 -0.2289634855201137 0.3493951322005079 3159609
-0.11183120417154549 -0.0874878931307076 0.5900826280404073 4276545
-0.13541525439202318 -0.203278526333455 0.4622712869269593 4999757
-0.13902175040401762 -0.20790181601726776 0.4381869011965146 4802894
-0.14254305469494272 -0.21322857515829874 0.4145959767566617 9934488
-0.13754021120695778 -0.08533947742495063 0.5582730322443686 6512990
-0.13602951984187303 -0.11254233265724678 0.5605643980765748 8947591
0.008642338606404065 -0.19812948183236256 0.4671729140116866 4341830
0.25400581774605147 0.007381120620734372 0.5001198179455321 8684680
-0.170697751126026 -0.2143290807171434 0.37881763832874926 5789271
0.16334996248296704 0.19745775900645035 0.14149010692897634 657928
0.1970584782377411 0.03786553309401508 0.5374124928544369 12302778
0.10712290165279684 0.23271518035618577 0.0512435554887839 789516
-0.160231731122461 -0.08231621470228156 0.5320985234906462 7697263
-0.17211307939058282 -0.17572269354461745 0.497219357123882 2565929
-0.18201808007427847 -0.19268856044930682 0.4009400568570892 5525074
0.1255463555013784 0.06984861994912706 0.583262981214619 8222843
-0.23792886154685602 -0.15531566389548235 0.34780217016154313 7566708
0.12923759930232 -0.1496279512909533 0.5023108809948768 5395026
0.27126544481404513 0.07242280907280008 0.49745809740932334 7697778
-0.25157516924094137 -0.016538496152889604 0.22447478279270305 11448495
-0.11503343554691917 -0.2269019462715921 0.32453055588101376 3882302
-0.046349370184868954 -0.1674767469231514 0.583799438353242 8421250
0.1430061931054313 0.0720183561287645 0.5653353174212407 9341835
-0.09293758386461087 -0.18467928598690397 0.06082325917530118 1447446
0.006722118830473717 -0.19236830189576049 0.28509380460064915 2170916
-0.04517792894995859 0.009339255758532117 0.8528031953554981 1644825
-0.10246559700997052 -0.13775152519384315 0.5796088178570805 9605777
-0.23134617492938664 -0.17650957419992208 0.34214184455539154 5396056
0.21940922226439072 -0.02070346228715514 0.5281034362189515 9408150
-0.17612631817736302 0.053986372421123585 0.16176253915310623 3288621
-0.08746797692204442 0.0018755094024132113 0.7428903336275564 4868169
0.04350753970462179 0.00877683141051655 0.8343184052750422 6642513
0.1983692137790963 -0.02155678399926053 0.5636345606705734 7960702
0.16011157577870497 0.1079753183046509 0.5017719971443454 4013373
-0.06761109047144151 -0.03360960584453154 0.7497060428535395 6244673
0.19419436369153056 -0.052127957637617905 0.5342219093578776 11250092
0.014231078875504038 -0.16398635445275922 0.6162446444360582 9474191
-0.07066056661383 -0.020694195991582287 0.8178398798059529 1907996
0.16815649398349944 -0.15096003410309478 0.3376447731116782 5394517
-0.0457356344922438 0.1471801886516424 0.7731245030580506 9857104
0.1986746360277639 -0.05243299873758589 0.5066418587095304 11579567
-0.2633715545689893 -0.05925276688043901 0.2507713876425425 8685703
0.18249540415663054 -0.0983725655788733 -0.19772462300833638 1907997
0.13821033058279295 -0.13878156313214673 0.4640043665954515 6513256
0.25094731023177586 -0.10050001458357039 0.4299552298247623 7368816
0.19436255043755638 -0.13119770479626747 0.39910234450492565 5328469
-0.09907181954579107 -0.18983703532801344 0.16777141271287965 1185045
0.16523245726950828 0.06409037870497358 0.592888801951644 5197908
-0.06862017927522311 -0.047487141925573684 0.7418842124818926 10515818
0.1603320529765773 0.12036079964224733 0.46763179520025455 1644825
0.1865662593137236 0.12469457022225461 0.4107537787327712 855309
0.06245905400079574 0.03261766320647641 0.8531244966689265 1710619
-0.12135915613741963 -0.21567774437352516 0.30198101322679716 2237224
0.17607817979943333 -0.021521110711992253 0.6140981139416165 8553349
-0.23189533995184433 -0.08954442427471954 0.2883665420135758 1644823
0.09896657714157367 -0.16043981897976367 0.5944239409175619 8223621
0.08678613298870103 -0.17589232652380582 0.5286421676228362 7303023
0.1343430857614871 -0.03204285689097175 0.6706034822760522 5984853
0.12901236777239136 0.19534135377487272 0.11470738056936769 1118479
0.05033366441146697 0.15902307760421563 0.0479398717780698 5395024
-0.04519474654739765 0.12542686366644307 0.7960825665650036 10709070
0.14062798358967346 -0.039144588938260005 0.6270688495597084 12171707
0.1680691475183598 0.04008352861095965 0.5623843612498015 12500413
-0.16674106869325708 -0.14965104241225435 0.12100151642197121 395787
-0.25151759563138487 -0.1062016571926323 0.31105929362171614 7763315
-0.0724020886527595 0.04095747969400365 0.8323068621020985 3223340
0.01615315137988818 0.10929320292273648 0.8024176535431692 3613211
0.015006222979185246 -0.059301368692300405 0.8057159048112253 3485740
0.010711659757669023 0.007878901559773555 0.8512152799616554 6971480
0.022434779930974896 -0.06286086378245082 0.770744768899145 1118481
0.1672506394463609 -0.12114640064281779 -0.3351187119499536 1842717
-0.05287419085016999 0.13591035907523008 0.7844302108316682 11892827
0.25446041641116124 -0.03137009589278761 0.4374296224076043 13158851
0.07278909485077503 -0.01873858011696672 0.7997794322562713 2631718
-0.08164936739909898 -0.2158770157200256 0.2970872264946508 1710879
-0.17135815516034952 -0.07746333055761367 0.496724901662971 5197388
0.19218365350319558 -0.017348949837247662 0.5321885901438205 9276561
0.20225515635271443 0.010954489008515367 0.5592883066009177 10986662
0.19726475090975623 0.009242088893357647 0.5309565755183024 8750216
0.03346121116424594 0.15236684173102844 0.14080724451094062 2302753
0.17908247538645464 0.037799552805029446 0.5827427939003541 7895162
0.13832134056666137 -0.12013126173059785 0.5927128853471707 7236980
-0.25089626315955155 -0.05660402261386399 0.23033956632720176 9277326
0.10581849533780854 -0.1692998593122872 0.19582910869421466 2170915
-0.06632117338188373 -0.03199079917008518 0.8054033017049517 2631462
-0.07091679427799599 -0.21710344693429728 0.4607299397978425 2171428
0.26517059426726686 0.04175965304690887 0.4721225988228027 10921891
0.1790913022096942 0.08918768246856623 0.5852798618253877 3684921
-0.045789309231726874 -0.01894825654204846 0.8275554984406649 3617839
-0.04156165875017631 -0.014466468196035809 0.8461591282926243 3881783
0.23980194408734315 -0.1157974949193068 0.3986881026921557 7039851
