# .PCD v0.7 - Point Cloud Data file format
VERSION 0.7
FIELDS x y z rgb
SIZE 4 4 4 4
TYPE F F F U
COUNT 1 1 1 1
WIDTH 698
HEIGHT 1
VIEWPOINT 0 0 0 1 0 0 0
POINTS 698
DATA ascii
0.05484875243146914 -0.1445644167555753 0.3802924495667862 1053715
-0.09082011338356999 -0.057991232989524466 0.09772971261335017 1447447
0.15492649464504615 0.09030304729386973 0.12055230651980275 790029
0.09220870621012978 -0.26625215331828045 -0.012391467889115382 5263438
0.014771962353021362 -0.16119248480843895 0.31199540884589594 724750
-0.12035812263612988 -0.12103083642049794 0.5941042422219026 6445393
-0.08796737997074033 -0.09040313196792527 0.15572803356173692 1184274
0.16092209523886458 0.019327367304202703 0.6907787539653046 2697765
-0.11671133486788432 0.0473207680397465 0.2108608100287933 1052947
0.08532511610031612 -0.11173874616121138 0.7923353979798115 2434852
-0.15554721264063365 -0.030665415875860802 0.512415830710537 9730398
0.12313992846157396 -0.1443000353808026 -0.16732213286112863 724750
0.14607868234173438 -0.1481538892120029 -0.21913130796588998 658187
-0.10041106729319016 -0.14378662928774366 0.23439316423245982 526858
-0.06508646310824395 0.1558084326967104 0.18770297938262026 855822
0.16821594533310713 -0.07963909302125449 0.8021472793254415 3158064
-0.12284313733461683 -0.0826902400546321 -0.06765980389520299 2895665
-0.09024476705620188 -0.1484972512711069 0.40933108778003524 855309
-0.1085163571003509 0.030323725228435627 0.28261842170977103 1315604
-0.07742051993521537 0.14796514140278472 0.2365560429213912 723462
0.03467611007944793 0.3245520536936999 0.060601233586877856 854272
0.15464789689687697 -0.02901831535864563 0.053205861192736736 921615
0.11457588225733817 -0.024950756277479336 0.28890090836225324 922131
0.11292050684170918 -0.17373409268425144 -0.00718395315091902 855822
0.07243385094799026 -0.1644172862575286 0.4272834936476416 2368550
-0.09860342857300974 -0.2665749642105677 0.2925401012747283 4474695
-0.11574452739444863 -0.2348384381598736 0.30220591633007954 6579559
-0.089601691277293 -0.16530314659476186 0.25992315977951586 658445
0.14317768691248745 -0.11548512172744063 -0.0036734862242013833 1053201
-0.08730930814493365 -0.11124106656050259 0.256160883319562 1250067
-0.10439567650777093 -0.057322863709064364 0.28598353688458944 1644825
0.05182918090090549 0.07376685359037705 0.600496589758787 1776925
-0.11327595174846206 0.0902098397448543 0.319565367050363 790029
0.04743613064603558 -0.1523563127408405 0.32193725160066433 724752
-0.10438420008231408 -0.2888853345086151 0.3165524028529111 8488326
-0.11596421425675452 -0.2658164263055274 0.3301274788191598 5000782
-0.13339818558081085 -0.22719272197698626 -0.22900910113726602 8751500
-0.11674033527188299 0.031120972814056902 0.34862079946358737 1315601
-0.11456722659601226 0.0498356847317849 0.3459232501916817 1381394
-0.07274629468111682 -0.2881109810459872 0.28538437291606733 7369074
-0.09754123126334768 -0.26417952131103917 0.3192814415295361 3487801
-0.11621904148642681 0.007301346287574173 0.34967109476692293 1513240
-0.0998834715025525 0.15000768597992087 0.3520519068421689 3619132
-0.15181969512666105 0.06104641363422125 0.4656668847968829 3025189
-0.1280660715690638 0.1396815238219089 0.41933156218680956 2827292
-0.046360285380555144 -0.26465310272796216 0.30406979011093005 724750
-0.1041636570118114 -0.02296936022496432 0.4002956221172277 1710615
-0.11001233825506418 0.052804870554088 0.4119895166816411 1644045
-0.09683389858589697 0.08927010476987451 0.38159622213057565 4868163
-0.1820732340409179 0.02493181407395717 0.5193942479734882 2235671
-0.2049112389172374 0.0058324902652517885 0.5530420811713744 3024156
-0.010737399756518773 0.037090981678768564 0.6277034682365771 1579291
-0.04631878763148212 -0.29717940829458867 0.3243532664178076 1908767
-0.10740839619567955 -0.039308049480427876 0.4275315922882662 1973529
-0.11840429257110241 -0.031076538498092 0.4441395187397549 2366743
-0.18800793986437703 0.02355145605800013 0.5493624923952466 6904130
-0.14753948066056322 0.09685462929318023 0.502087623360162 9011831
-0.02960643276738617 -0.2655389328532056 0.32085150837291654 2434337
-0.09523276769167777 -0.20687869736248476 0.4108695018502081 1448218
-0.09313160144399668 -0.17757219542370173 0.40600268846709453 1184274
0.13190894869429237 -0.0607316006695382 -0.20867568897399058 658961
-0.10075752629288215 -0.06507733464432963 0.43913837680982726 1579541
-0.14979187831057272 0.06514773716002065 0.5314217803844995 10062198
-0.13327964089006872 0.12615500643181 0.49869996124689464 7627350
-0.06277028513594152 -0.2847377240298532 0.2688733168143248 1315859
-0.010769686981147775 -0.2623233742692239 0.3241913875734709 1316891
-0.03824231716477278 -0.24157567616517328 0.3644635919765168 1645338
-0.06665859160562682 -0.23479569354403163 0.3806742815542917 1513753
-0.06323520441889396 -0.231269461282674 0.408021207370887 2565666
-0.09022212893936365 -0.17763329237585035 0.4393244191410982 1841429
0.15252454380001046 -0.1451826875832487 -0.2557571186216604 592650
-0.08616492236123086 -0.14768665885321663 0.4368569360102167 855309
0.07663453504483053 -0.05899219040757764 0.4022381935503 1184789
-0.10544383245658162 -0.0893200853213143 0.4667453790343802 2168847
-0.1523128712362567 -0.08415481251709922 0.5287944714243055 9338220
-0.1314393451382332 -0.026229599975109874 0.49594337420138557 10452056
-0.1576757587163542 0.0026483514527213536 0.5320086655543551 9600357
-0.1473173499361542 0.0037835352528357014 0.5607172723725827 7233615
-0.18774051692224436 -0.003078516071969517 0.5616076068319379 7494467
-0.13392904339083156 0.09706306366360673 0.5006503678181805 9006155
-0.03541170942583638 -0.2588585746045524 0.34776149715021065 1513752
-0.14547604936349612 0.16226457595615518 -0.1344209558478212 2631712
0.040287627087491895 -0.20828280624570228 0.4274159551716391 7822922
-0.007371121848449569 -0.17164879150643264 0.47760461805000654 6047281
-0.1029797883275907 -0.08640853307511209 0.32227864367084325 1315860
0.14340134861257958 0.033172273843332434 0.20215525245573251 724493
-0.09791718191187426 -0.1352614403759418 -0.059163431573471814 658959
0.10529352128618896 0.1270925226906825 0.23424692977335526 724236
-0.0017889309301912792 -0.26267450820618077 0.2556621299111662 5392440
-0.09361538699271188 -0.1174715162964759 0.38081343343620067 921102
0.0920887764114795 -0.1931554769610142 -0.23594352191943135 526603
0.07947438890202907 0.09065247805440402 -0.19256803404191014 395017
-0.2501885504521075 0.03248251184557249 0.04229601693999474 2499872
-0.09520997634322792 -0.17880831522946794 0.3568304860614392 921102
-0.007512282386533897 0.09234238743992851 0.5856790518397342 2370093
-0.038889923140221994 0.06547480533647887 0.6196470491533127 2699059
-0.0933635742610357 0.0646625017297584 0.5647009899399399 2501166
-0.10826174120861598 0.008401993188726031 0.3082734915724089 1579032
0.007339260680470083 -0.23239721816857362 0.31426420977380654 8152140
-0.00292279349222202 -0.24585288005133643 0.33704387425955373 9797215
-0.006567603118639909 0.12503004374911075 0.5931377069383733 3486771
-0.18269873850144958 0.06277073394132149 -0.07408193340271141 2960165
-0.12554430492396307 -0.1131422895033154 0.11144508777861473 395787
-0.06406006920877227 -0.20334468569696762 0.5002056434799903 7561546
-0.010773496432203045 -0.20516936284076692 0.524326339428914 9204053
-0.08130844076133603 -0.16840407923728407 0.13125610284074385 264201
-0.11782269209536889 -0.12125157736936032 0.1995770099198847 461581
0.1253007728615545 0.05957032216440883 0.23122314067162242 987154
-0.038282690237204875 -0.24881441531108095 -0.22668219254453736 7699313
0.0962468314026077 -0.11955501943961266 0.45450072258956975 2302753
-0.1049024483934915 -0.031486378471007104 0.29231100826844025 1644825
0.08577909516708626 -0.08807583076886694 0.7996598152926383 4078391
-0.1150325077212091 0.03574089715195061 0.38073716671538704 1841943
-0.12517860982849927 -0.1188049234316626 0.38051019706677647 1053204
-0.002149574072396687 -0.12666556160701292 0.5621671816896231 2040356
-0.13047363387532118 0.1330180641294234 -0.2148622427110175 2565666
0.08989773772407639 -0.030195543254412538 0.8264369472436836 2434341
-0.12140852099510546 -0.02166754869999421 0.20892832626372215 1447961
-0.03565684833018734 -0.026793246292388773 0.6466072805334778 2699576
-0.12084762107507974 0.12271535150383661 -0.07231894633882008 2434078
0.15517052976811785 -0.07934106614265168 -0.1545609649191605 921361
-0.0037872530113935987 0.06366938139633982 0.6445914290740195 2829878
0.12713057797373262 0.12454695552921535 0.16946553514328666 987411
-0.025141889258447625 -0.18333879940653208 0.4054420004631508 790029
0.09948109660391813 0.24746043132341144 0.2780159971951427 1447695
0.07690107479293307 -0.08777972092723729 0.38637925456269284 1448475
0.1950894746928049 -0.17910255432924638 -0.16613970069222483 1579545
-0.08508050661695932 0.14621055110701553 0.27651576992096183 920322
-0.05099111903070597 -0.2228004204268621 0.13923209093387456 395019
0.17085177767269322 0.002520245668499843 0.04493010826664656 1053201
-0.12480023292409426 -0.06044740645418001 0.40317840637463787 1973271
0.14127276166657232 0.0009046906042762259 -0.18946107605886853 1776409
0.15666959712649886 -0.059201869781648764 -0.2008011168294609 2105635
0.11888288546999992 -0.11791493078938853 0.8047107416227038 2697513
-0.2599414458050475 0.009815819865523157 0.01990990497959777 2499872
0.12908531669652534 0.18818571358296232 0.2679895799752142 1776411
-0.12712718390645827 -0.11520672683116828 -0.14598135350584351 2435372
-0.10049488921511252 0.1250115927926121 0.32664944654572714 8290165
0.10091892974573469 -0.1772612445048516 0.2014885845614286 1053717
0.10483659412014279 0.06701226354111611 0.5183877795715678 2105889
-0.10460650730583354 -0.1765090709631747 0.4700227422566413 6573622
0.17350136964434681 -0.21985091213140562 -0.15519485489967344 1711645
0.0956097065457433 0.14695320831727354 0.5739598291801612 6310453
-0.005705598839877535 0.09289175169140318 0.6160927580129277 2435629
-0.12269767379377106 0.029255399836874307 0.10312131192575202 1184788
-0.11430516067614649 0.10626952445586202 -0.03222700108504262 2499356
-0.17646118991410265 -0.13714314514211434 0.0017608404277170697 6382434
-0.14452612063458092 -0.2470066895412475 0.41088379103995176 10395546
-0.08025804553919813 -0.22279124003046213 -0.169885481505878 8684935
0.08707285653339136 -0.23138280246597276 -0.13025797763884206 856080
-0.14434646623052738 -0.05056499533216874 0.45823348403696096 6047540
-0.15506656956107556 0.1933843163918194 -0.20595681960492163 2499873
0.054176002483805163 0.15370652514772187 0.5317794921727642 3222309
-0.07019464083476845 -0.21338666460748845 -0.12690308817530882 395273
0.01558166564177954 0.03704951041880333 -0.37727721411031145 395271
0.11270407168368246 -0.17524714544595632 0.136982812614441 1053459
0.11209541438800863 -0.07910380607052714 0.8274263271651386 2829099
0.11182491707526165 0.1268174377420448 0.5814639913686009 8546896
0.1438505301082722 -0.15465143715623508 -0.1748213984139776 921615
-0.06332640712800752 -0.20013442942528759 0.5632001918497617 11375218
-0.13439358569144488 0.02365346887383435 0.0012684601473419432 856340
0.15382864327682855 0.17146029889327608 0.07861166236168116 5527643
-0.0797406860682659 0.12557541780332127 0.18118727852995853 1117968
0.07506395555347312 -0.19925819981292925 -0.05201139091358031 855822
-0.13963262133582832 -0.005731178204613219 -0.22345324728868554 592650
-0.13370928500572 0.0682390521206262 0.5361485488164995 6510925
-0.14913683725508697 -0.02580445452037239 0.5607813680384196 7562839
-0.11325788480021881 0.047252519567656304 -0.3682378953289981 527632
-0.1326380785570085 0.008883857283785712 0.46674567116720367 6902327
-0.12163368243465378 -0.11293399434064044 0.1464631783277487 461580
0.19397551637251986 -0.08410011557681063 -0.04682195199666894 1776924
0.11583734833675763 0.11354627449326848 0.32534574901312363 790029
0.08657781867224612 0.22129269803517415 0.5106344411865905 6576719
0.1109726643587603 -0.05982756906305742 -0.26100545769094496 658961
-0.09358604986173447 0.09899717702339217 0.23273921000015163 1052688
0.10787278665347122 0.16078267556205805 0.516844206265347 8283210
-0.14890898196208746 0.08517634644778838 -0.08664929530178489 2499872
0.14598579515589538 0.027661853025746197 0.071025698317705 790029
-0.12488365092209408 -0.14483195870309684 0.5883491399283408 11244922
0.10379427835198585 0.003256797040323889 -0.16455669730918865 461580
0.08823200841190215 0.02675673321831118 0.7742157068294199 1447446
-0.0976094353231809 -0.0835612661491858 0.43385072064253405 1315346
0.04699645366421068 -0.1755490815815639 0.4729328484664438 3946028
0.17789623615533579 0.0060616398997437315 0.019292248024171732 4474437
-0.11655768341748929 -0.05272785547176584 0.25527474872665656 1644825
0.14008587281883433 -0.27912547919520136 -0.38201696603750157 2500393
-0.1271645131937571 0.04271504646326019 -0.179287166912513 1381655
0.19793276514072233 -0.14711250777555485 -0.15432991155389775 1579545
0.09069181571393248 0.02313272657515597 0.4576512372067095 1448475
-0.008205988938299491 0.200888307930843 0.5281758969877132 7430999
0.12276999196894844 0.03270189301313131 0.3131501348808289 790545
0.12424529875827917 -0.09062022095368061 0.1418285553480848 921874
-0.12305253678654227 -0.056140565788322494 0.3802627674118805 1250322
-0.11684525476922825 0.09223796300209619 0.559849487285866 5786946
-0.09228353562021963 0.1057489425053677 0.13983756114249257 1710366
-0.06556555141147924 -0.25934658971929636 0.32086233220731 3290938
-0.03987412214525721 -0.1950380415647035 0.35443802523144485 790545
0.0828079956634249 -0.05468467645796071 0.38193764799217444 1119510
-0.04292672986568968 -0.259883891175567 -0.1479989428852283 8684935
-0.12601138137023837 -0.06131374630685649 0.02313545722410526 4145988
-0.1273141567150038 0.002580282693624092 0.22722726122998715 1185046
0.11839777043012667 0.19971814848261804 0.1506987816417512 1118481
0.19063523158943396 -0.1342113297770573 -0.05589561264364307 1711131
-0.0967625849962892 -0.1716723629077812 0.5279329111628678 10520428
-0.09996636156644345 -0.26181803643439716 0.350914973213193 2106148
-0.1148261110138249 -0.08693317177712157 0.5796063944890265 2895670
0.11631562530694861 0.18006357238468773 0.17993201351288313 1052947
-0.06947617075845702 -0.0591671387945496 0.6186281895400773 2765111
0.12581785760167885 -0.1425850325329403 0.23123413919869595 1645854
-0.13204882824842112 -0.07977450596339208 0.39856483790454844 1973528
0.20399360295664248 0.0034253371242845 -0.0002895996585655647 1513237
-0.10616280798304323 -0.1812484331948867 0.5133566558106325 10519912
-0.11564211952124825 0.03894409047590752 0.054923558543897744 922131
-0.03369874609662826 0.003358645536670757 0.6502523000224821 2567219
-0.09020917410250595 -0.18113411339235563 -0.19672745901797117 7303282
-0.06915909561694011 -0.2393560892047013 0.3221815312728794 1711647
-0.10336987068864278 0.08448446012169653 0.1652385229149992 922133
0.1090472725159175 0.024932335497919844 -0.18372784523633146 329992
-0.1122703031030019 0.03465052970135263 0.4146957897557867 1775633
-0.11663237745338684 -0.09521889790222682 0.2584521342168259 855568
0.03932687731552931 -0.20427462329772395 0.4756900027209262 7756614
0.0926564867444386 -0.02606975692096336 0.34674543288813975 1053717
-0.06809808452704313 -0.21082165500526395 0.4149485245346446 1776925
0.020291451151448703 -0.12818444634895876 0.5456921793014485 2105889
0.11212653235807912 -0.11636638858007853 0.1651677250725807 1053460
0.09472113071930321 -0.1045419871030524 -0.33773268133904855 197379
0.15485707496665135 -0.0574492508323301 -0.15651392126310892 1053201
-0.09066610398965214 -0.05228788223598224 0.6153472563153687 2172716
-0.1306925566746584 -0.054660658865955725 0.3302248841656493 1053976
-0.047350625936880775 0.16156159995610242 0.5140226657334815 7298626
0.07378058643293683 0.12063326193895119 0.5537529784252281 2566438
-0.09047293023516967 -0.15158386058656426 0.5362138224679339 6314319
0.11960995878976544 -0.25406577356873683 -0.08785119037267364 658957
-0.03354317250860128 0.12209484073153298 0.5601836161721666 3092272
0.1398217330489473 -0.11085846045064329 0.028702604914774277 987408
-0.0971552093006125 -0.11710444327489933 0.4093148389273128 986895
0.04896564289469674 -0.1915278568401626 0.4559039961006198 6443329
-0.030868016854743274 -0.23455174276272306 0.5589944716722836 12558718
0.1256879224527423 0.12264638035120612 0.476565792183555 5984323
0.08921371688518276 0.014239956317096514 0.7836226200437636 1184787
-0.02224239426032959 0.17951170509175096 0.41755178292654815 4208172
-0.05173183333778564 0.11183711504005966 -0.10024251277704 462091
0.0841814274761774 -0.22404943442327419 -0.0939027221058697 724493
-0.11295546544662338 -0.13241787630795132 0.0783081473204178 329994
0.01089808874806586 -0.23150991220666128 0.4824322136983198 9467477
0.13859556501567538 -0.23560195598346834 -0.10268209325308819 1382166
-0.09948827434786622 -0.21092350394291248 0.3444008333073775 1184532
-0.04535367690759928 0.16727844328017527 0.4021436089448195 3156776
0.1273745819618033 0.16324049529160822 0.264460300896333 1447446
0.1481370336074801 -0.2621563605647048 -0.171235699532584 1184533
-0.059144821655331636 -0.2044383532361942 -0.0396257724500535 592908
-0.09903273808880142 0.09271711514062453 0.2696315286042067 987154
-0.12362730148834822 -0.07884658514231946 0.3124153826059052 725011
-0.14003992037485746 -0.029854401421091747 -0.16058018092405335 856340
0.12002564162788998 0.19078412725979987 0.30394419893503033 2960675
0.12293668337463193 0.0674786626498749 0.2845912067905155 790287
-0.07449743153852006 -0.06107916500362309 0.10171861854036912 1579033
0.1797683720217116 0.09549083523209445 0.07257389173413265 1448475
0.1040699734856334 0.026514535408396434 -0.21553665264009003 132613
-0.008538109976826691 -0.25517862593772733 0.10156143136857465 1645337
-0.04800674791872139 -0.23717445475501364 0.5299930980242261 10785139
0.1659089423853768 -0.13579194159460073 -0.22571523575727193 921615
-0.07002180996239327 0.03268339155367661 0.5991475872437014 2765112
0.15787760171310117 0.11262657300765078 0.05212881640922784 1579545
0.1586727032222668 0.07587833179793524 0.016906012588421837 1776411
0.11855821752730589 0.08502160596993713 0.21875356975197724 856338
-0.01073312594366893 0.2048782684025654 0.5739199173574482 3291192
0.14821694408108943 -0.06110476892684158 -0.07974593771406269 921615
0.13950893250700291 0.034296180994279 0.5674462288045797 1447701
0.11465271873734206 0.14511668973599745 0.5077696468599256 9006681
0.12381499372242732 -0.2324635018453325 -0.06802284013245685 1184787
-0.04671305520063562 0.24399296172661078 -0.1588962519173095 2039575
-0.11294540469861158 -0.13626655181183578 -0.12915824795793707 527375
-0.06619282974330121 -0.27249855929973155 0.2700429411606612 4672074
0.16596394664024605 0.16330309555331235 0.5540638746511474 11313801
0.02255920771019193 -0.2263552142657952 0.07152701535732675 395271
-0.11462121850263984 -0.12023931696417067 0.288713579220529 527375
-0.12133339342556138 -0.06862794791275428 0.469038418099622 3680539
-0.1112420924533215 -0.048215363855451 -0.3139886199534584 10001047
0.1363887997465607 -0.17443012595673846 -0.09800886612612036 1053717
0.0015457772003237835 0.1346977563203331 -0.12665158477674232 527882
-0.13689541758860302 0.03045317615962695 -0.10250119050136808 922131
-0.13652671795020166 -0.06497407560754365 0.5394396221415881 3026730
0.001319102454678145 0.1079100586438475 0.5700469417321866 2764591
-0.1227812451697039 -0.029229234260107262 0.26188521954003086 1513239
-0.01738095807780793 0.18992632549103128 0.5141546906076647 3550242
-0.12393193521970036 -0.08959859592763797 0.6191093277792769 2105635
-0.07827971634440112 -0.19827136009109747 0.23886539458503175 132099
0.15188540287198693 0.007537543752495157 -0.07593692252272766 658443
0.08717260887299183 -0.060599286926894536 0.35223807469480184 1119510
0.031815716737152666 -0.2843340630012623 0.150997388810726 3289648
-0.10819012263254568 -0.08038241691462034 0.5398662233722246 1382682
-0.10752557874091151 0.086476537196718 0.40953074415063406 4934216
-0.08848210393578482 -0.17527109711890443 0.2976571918688534 526859
-0.12479424899566993 0.03818880241918832 0.22767378818575879 987667
-0.09090269225200909 -0.14825630602863527 0.28829923611163066 592651
-0.035544071978071745 -0.050849714665696766 0.6198431047606564 2501679
0.13316816391622122 -0.13785499135526091 -0.06359575027619202 1053201
-0.08607588539649735 -0.14098555230572085 0.25760722946722037 986894
-0.0678543578093953 0.003159213002952299 0.6224784330709484 2435888
-0.1336339222323899 -0.05445041537495365 0.4945724358607487 9005643
-0.08684758373409007 0.0883160292020424 -0.06503386330069583 461582
-0.1274299070804843 -0.08879815460289908 0.556787557527317 4670013
0.12664439152245377 0.17541994538922534 0.47231161143027334 10520678
0.1330545799755969 -0.11111620495133545 0.08993563453012554 987924
-0.095974141722448 -0.11532802600594216 0.3480878722750055 855309
0.147353165199273 -0.06011535355413944 -0.03904660545952787 855822
-0.11737679953425006 0.03112943275570146 0.3242579878357935 1316117
0.1741392151846315 -0.1526204435132179 -0.025118944791030606 1448473
0.08161882332509784 0.09843257904999803 0.5590493145341638 1974305
0.12038447264027652 0.15440447599461704 0.5685838729708547 9599576
-0.14833851401417042 0.1093076182724908 0.4938111681999878 3023128
0.06851869642056885 -0.09295838272357315 0.40911234818990316 1580059
-0.04797397436695894 -0.22685972753236916 0.3881488701535135 1251096
-0.07672632398551049 -0.12865750378928542 0.2791610398191967 789516
0.15022179975638883 -0.03080543546102632 -0.16814705387354623 921613
-0.12797218301016833 -0.022092376495141064 0.3273325782342106 1251094
-0.030058806630848034 0.05764255598007395 0.6447970246220912 2698804
-0.12081068388933014 -0.11228972576481011 0.22759404679055428 658189
0.05877806417251197 -0.25390667791252985 -0.1210045255709048 329478
-0.092563477351435 0.09766582670454982 -0.16063298418243555 8816521
0.1120866058364749 -0.22852751209683042 -0.02040794385024458 1513237
-0.04412331044146289 -0.19739895451516887 0.43937648540642005 1315859
0.08403687497589973 -0.09316740788886113 0.5810045846169071 5065551
-0.13211720511457004 0.005999048182982136 0.07989324818426402 1118995
0.08603784027172345 0.29759034834693043 0.21151847831242854 2434852
-0.11829610495446352 0.06353408667258265 0.19837512960675874 527373
0.18422672472590595 -0.1129239457028195 0.03235824062328285 1579545
-0.13827370513572879 0.03182778194556146 0.4533117406695514 6114107
-0.1405039264117649 0.009294989123194597 -0.09451954268207141 1053719
-0.026283451162417926 -0.25742978386508986 0.36733515948257167 8152655
0.13208354529690114 0.051268149478160385 -0.11944159731652204 1974303
-0.06169149232634408 0.12099268273284336 -0.18379373446030456 10987942
-0.10816391135821757 -0.13108079177238618 0.1554296004137593 461580
0.0167530402836229 -0.022110703807967536 0.7761639622770965 197379
-0.00935867581226768 -0.19945269610352545 0.564203223962093 7626313
0.11916879320336915 -0.05348818719316917 0.20449146217527103 2500388
-0.09690158127431792 -0.17556091488624537 0.5867425431232717 11901557
-0.1129502343334099 0.00353338803978831 0.41453231693311066 1644825
0.11354909492544696 -0.05643569960956629 0.7888277039144794 2500132
-0.11371226934704137 -0.08490420995549375 0.4787981721186788 5190942
-0.11206099236714184 -0.05209672229428142 0.3505574548816216 1447446
-0.09282817026993428 -0.1146272566002482 0.6171651989079215 2566958
-0.03988443607869119 0.243560101046274 -0.1308839357633772 1907735
-0.21387038160444094 0.04977455389009844 -0.03635549622807088 2631458
-0.11238839889674002 -0.02104088884744426 0.3523011491060791 1513239
0.11984585574260986 -0.1480368217683523 -0.31325003287287523 724239
-0.03628773840844568 0.17554648825885266 0.35540884876825884 6842731
-0.14265233785630604 -0.08769192749090049 0.45134022288752174 5127724
-0.11536922631550106 0.0699470838059506 0.3774041154555686 855824
0.15551856688094223 0.15940549506727963 0.00623152347199063 1776922
0.03930065350379941 -0.20653281231125487 0.24125357957510396 1118742
0.041297654592999056 0.11414099859131488 0.6108923636717659 3026737
0.05386747203289466 -0.0852143254860609 0.7683007177986944 2434340
-0.041898514549094656 -0.07002907058075758 0.5992769814301161 2173228
-0.03631876486576613 0.07749361284088385 0.6018246462431752 2698802
0.08803201484373124 -0.20729635803643953 -0.19651351613827195 1053717
0.13898065300906826 0.09612271966963926 0.2501647958251477 1185303
-0.15506186181590564 0.056241653688370086 -0.07512244766959386 1841942
0.1608619411815979 0.012683825184939046 0.1987806451790003 1514268
0.17225387272341308 0.005387224984114702 0.16304834641407617 1317144
0.008571769382594407 0.23373115265410593 0.3058290412436214 6777192
-0.138918684099822 0.0034898977009101273 0.011311959799980564 1316891
-0.0873160912417239 -0.19416188081706576 0.5759206861422436 11044451
-0.1037942433589627 -0.05331742048285237 0.4139819191360753 1579285
0.12184859677588511 -0.2062089657139743 0.029316816320145933 1184787
0.09149590742275682 -0.2051322972903855 -0.07372994477490724 922131
0.10248548285472903 -0.1994395408599603 0.12536893160022566 724236
-0.1221398537566536 -0.09401897247878699 -0.2200620248230435 9145486
0.08789764724424032 0.12395860176948581 0.527907183215521 2959398
0.10083336554419686 -0.15670740602939537 0.27749049187153363 1514268
-0.11522156433197894 -0.27085629936953826 0.35734924661562595 1250580
-0.07084916544623998 0.06571732276420006 0.5935655363238131 2369839
0.154933482410738 0.038504129807642506 0.050261275528560634 724236
0.009172281352245681 -0.03090847731514712 0.7951543246497331 657930
0.06860203318151381 -0.20517583438619447 -0.28462717171489416 3553335
-0.11530896792189704 0.035304808243429964 0.16666705669005544 1250321
0.16713558601249412 -0.14980888219175936 0.056345072657235096 1579545
-0.10032563007829998 0.07219632690353661 0.37431551113857997 1184013
-0.11883711715055978 0.001596184378534815 0.21262842988442643 1315346
-0.12209213697721255 -0.09530303178064692 0.3426121835124484 790545
-0.12375327316861906 0.004047236084323114 0.2572886947285081 1184788
0.077147768575895 0.2893139478995068 0.24950034957189138 2434341
-0.10230508218588596 -0.237966836546037 0.3238274341598856 5593437
0.05469128446939897 0.09424810291337815 0.6217741545024068 3158840
-0.09436623514233089 -0.260065267911167 0.3765446687120667 1053718
0.09525674206204426 -0.18176904659239845 -0.33048143265955543 395271
-0.007520101159547377 0.20765813661207 0.4989295652427389 2893604
-0.12016561823916616 -0.20404516991150734 -0.06250403067336185 9014150
0.029616524222336738 0.23081390909940414 0.5143759857816425 6051404
0.023256017598560996 0.06157097740377582 0.639463010103058 2961720
0.03093901062979798 0.23901276910851887 0.35493917432124833 7895673
-0.06709051494703488 -0.23791271711923923 0.3541410900340608 1382424
-0.11979089780246577 -0.11504151275002483 -0.10799533621491386 724754
0.11449767377076392 -0.08729502525874677 0.23648653766524996 2369061
0.08444238529772186 0.0670624758739704 -0.16181948652200207 264201
0.10924855396402178 0.11996637774221863 0.49975993639384797 4471858
0.08809956740603786 0.1570573726431812 0.519219748675228 6113847
0.1278407872394567 0.10339489202014818 0.5824628478622914 9535850
-0.10849930462786306 0.06785997777291453 0.25600972454107696 987154
-0.06105641270392326 -0.11214934151088629 0.6097858978002407 2304045
-0.03173020325912601 -0.11613095699433984 0.6190385428281534 2633011
-0.12903642803019832 -0.024600529187328135 -0.0697765066695607 3948352
-0.15028211772424105 0.03592671577893514 0.5473556299898191 8813163
0.11065445965386278 0.0007049323651346917 0.7960471317052887 2171169
-0.14659552193381042 -0.056709360919494856 -0.09330932701038697 3816510
-0.13282985177828865 0.044349695709485104 0.07575898134782488 1250065
0.13117008695159926 -0.16238313875151844 0.1721206706376962 1580061
-0.1408081850751257 0.10384901924973233 0.5508954115148391 12104358
-0.14751015359343178 0.14768230345380706 -0.08665140768579438 2302747
-0.005245024971606949 0.1389299385330296 -0.16141740298778362 921344
0.17162684388802862 -0.08158472839263498 0.7481543074946072 2763304
0.1695260473225222 -0.09495644829968475 -0.2199319322435741 1315858
0.007489859978624391 -0.21381388153028702 0.515354535413589 8809296
0.18133144938266277 0.008263619634727881 0.105298427143108 1185302
-0.14591523238923765 0.08934304065894594 0.4743075647145575 7564648
0.13563000126888225 -0.13107892543890154 -0.3496916208768529 789516
0.1543273521076336 0.12291247559520002 0.08201982501892968 790286
0.1615871387361949 -0.08708169573379632 -0.2915169275763926 2039583
-0.14660593087364204 0.08877259037121821 0.5364060023213525 9995631
-0.11621969975709456 -0.293019714495681 0.3115996123705306 8685447
0.13932581956530754 -0.1028524620956679 -0.05300706330139027 1053201
-0.10782615202791912 -0.11721740316156826 0.23040367040528442 1052690
-0.12904113767503622 -0.06600193739720783 0.6110210915555302 1513499
-0.12167578617413533 -0.21521180658757277 0.5013928856819915 2698026
0.1351527939730537 0.12501057643342994 -0.03231365247228701 1973790
-0.0984839902254413 0.08683995271816514 0.11751954353628669 1447185
0.07246728922903589 -0.2750669292732866 0.08399923539934362 1118481
-0.11943205933508705 -0.08143507500920943 0.23294798692739216 987668
0.179166658307095 -0.025269117133636332 0.04630166249165102 1250325
-0.12201072883523523 -0.11547669768537627 0.5563639816130955 6182733
0.09357641746367351 0.04062251691703045 0.7529467828954134 1579032
-0.11797448161644786 0.03898887748977842 -0.031165455916181584 1447701
-0.13952050878293676 0.01270720792147273 -0.1574400879130614 1053717
-0.0006418949395003981 0.12884668091579643 0.5558280218234061 1777441
-0.10187842988436069 -0.14841272788475113 0.18052881005199828 198408
0.07548835442813306 0.05107888673808958 -0.24943404904588717 263685
0.15010667738694083 -0.13555721874984883 0.7935014207587031 2697513
-0.0809460017343393 -0.1668325638389545 0.17138438706473258 66822
0.009176369392013939 -0.041426519555815666 0.7796047968030654 921102
0.1941150369425566 -0.0345387438241036 0.7344491260234557 3092010
0.08491321190627432 0.18839333599649688 0.5176081817961616 8611915
-0.12972344785397083 -0.12572891606221326 0.421260174545217 2761501
0.1611773809351671 -0.08592624377864633 -0.1891576647975629 921613
0.09901711716490524 0.175180493251208 0.5713427894265087 10190946
0.09897186258735946 0.2656602530914687 0.27281204360334443 8489609
-0.10368020837535852 0.17584961633812668 0.3589553272352638 2894887
-0.09279439544111612 -0.1930366437191302 0.5505234193601277 11375471
-0.0974972274938799 0.1363449594173991 0.4982269162600109 6575689
-0.13295493840017936 -0.0029827337994321468 0.04104989375559831 1184789
0.09214799025396236 -0.19193670396348939 -0.2837536133501234 592650
-0.09131675899116432 -0.23533734575943388 0.3772120636650883 1316632
-0.03570475603483203 0.17007916999283212 0.4682764169370698 6181434
-0.12347618060911048 0.02687389300745302 0.14378859579964798 1316117
0.12853534966168723 -0.06065044634496397 -0.18651752249751918 724754
-0.08669388210557205 0.12547066053248512 0.08115670346147386 9211275
0.08661447364170272 0.12110305750642025 0.5911039565862194 5260088
-0.12480127847089872 -0.0028455253214278997 -0.06999253087079615 5197646
-0.12211101618334674 0.0001244087093010826 -0.04052683501231502 5790042
-0.13827582217682877 -0.014305257169429986 -0.15821732565124103 4013886
-0.18343835281279186 -0.12065631243285369 -0.02399618725376118 6514020
0.15629201169017004 -0.11277534274671908 -0.15017966633679503 921617
-0.09467107625714144 -0.11875318232654264 0.5872763005003555 2829361
0.1485742820572511 -0.15678329400608426 -0.11801998635460043 987154
-0.09587272298999405 -0.14111461613624332 0.5603618003302658 4472635
-0.1364153119076157 -0.027406216519040072 -0.2355912943034436 2237475
-0.06752818090324175 -0.17348726716414653 0.5638331666750932 6773837
-0.007088271695266712 0.19439705795712658 0.419153459495453 3354404
0.005159566113887015 0.2082636606701893 0.4257391504766618 1446417
-0.05167183630286276 -0.22933808354287244 0.46233437516881126 6442816
0.14975344262147838 -0.03221632782904216 -0.03569087953188299 658443
-0.08738314960948257 -0.2032443820032359 -0.2068808478046672 9211533
-0.10895772456826158 0.06799078522918967 0.22820978395976954 1183761
-0.10646330143525917 0.06134376821144505 0.28558902345984116 856079
-0.03447078423838401 -0.08962381280362886 0.5957060221565348 2435116
0.05890891878068638 -0.08445062937649617 0.4967669925947894 1711647
-0.15877463027292715 0.030980731760735125 -0.068532161208953 1184526
0.12265678350327791 0.089980620934758 0.32376713976307403 790029
-0.037637229038909537 -0.05035782697408164 0.6444385570342844 2830906
-0.03358756632511861 -0.08441810385683146 0.6232015022507472 2633268
-0.009851339179822727 -0.24300491793697176 -0.1365513931311687 526346
-0.039794065697459136 -0.07171674734865219 0.6393787183887273 2765626
0.12683272171807602 -0.14526575370087302 -0.18853220836324402 724750
-0.11025774684426182 -0.1149848480641471 -0.07804697135888261 724752
-0.08069955995998979 -0.1778485664809959 -0.10853996287421841 395789
0.1654748894605813 0.13106121130088333 -0.012657970420782427 2039583
-0.12344373133230802 -0.026569615037605576 0.24195065640388969 1382684
0.028152106070437277 -0.15035705008984257 0.4697785069805841 1579029
-0.12853981015831906 -0.05353444547792474 0.28920651398267905 1053719
-0.12136218845253777 0.060909388805538534 0.08698935318768719 1250324
0.026400647692963464 -0.12923475578153676 0.5204144964646397 2368546
-0.07305283799868145 -0.26715961541743916 0.2846607867035945 2106146
-0.0891533647559033 -0.2000655379829821 -0.1436204547985923 3488058
-0.1042561486984388 -0.2089327038726556 -0.10591524931138119 854796
0.08030784591385087 0.007697482388082211 -0.2707230815447329 526603
-0.24393343015068947 0.023268570938492772 0.028161876202552283 2697251
-0.05590673806582536 -0.26064613505012124 0.3472501698040781 1513495
-0.12890513002732473 -0.02920798543735481 0.08375141703497024 1316118
-0.13473925162420497 0.038913549963462746 -0.2332686789473407 593679
-0.14201597512172848 -0.02173738319852081 -0.09356432719269225 987670
-0.06643068033997945 -0.2408256834994238 0.444784376661023 2828838
-0.10700247493214188 -0.002893563366483942 0.16107754372400118 1513239
-0.10489354867821232 -0.08678002073532154 0.41052974759195926 1315861
-0.08074010582696767 0.17789913058809592 0.517125628353068 6645085
-0.10653842695326832 0.07338195978464856 0.3468165012892276 986895
-0.11493690008075297 0.07726146608890261 0.006314821353972655 1512463
-0.08916356381851087 -0.3223917763895914 0.3420574980201959 5921629
0.08012789041829382 -0.09306800183418185 0.773624945728192 2236960
-0.061796511442853586 -0.29165607247163905 0.3242967914998619 2829615
-0.10311500725372214 -0.08657651842927061 0.2314305433113789 1447446
-0.12368703797917413 -0.02821592312879906 0.13737056634915845 1447447
-0.10469345060742707 -0.002141483953093104 0.2841107860228157 1579032
0.05289183581172785 -0.22956568660411492 0.5564177240115561 9862237
0.11725936874334364 -0.06027560950351063 -0.16156911880035796 658961
0.021842542121009334 -0.1621456259002798 0.4027193123887637 1118994
0.12522238986802892 0.08387391328670057 0.3666913016028598 855822
-0.07510734846853295 -0.3245520536936999 0.3450558410522485 986907
-0.10694186015956397 0.12711223194640286 -0.006875123143373352 1907735
-0.10549417514087533 -0.020003385325449763 -0.05521925852514864 7435122
-0.09525599620022773 0.09167314540807503 0.5826687125366995 4012855
-0.09440502436600373 -0.06255334838017124 0.5602253671044467 1580579
0.10888569375360557 -0.08086567996305583 -0.15876719373428216 658959
0.025807302730118664 0.09263406499868454 0.6221443339279465 2764082
-0.09200963487939373 -0.056088943186863194 0.5906145492626335 1711909
0.1305864257819147 -0.14996590405110366 -0.36034847131298686 724236
0.08608318609896126 -0.054226764970397134 0.7987422049770839 3157803
0.09719093282448155 0.044703984208447345 -0.14730674751416417 198406
0.16687374378489972 0.1695025139272719 0.0912150919696576 4342336
-0.10465933987870324 0.06897968089131634 -0.07384283902057087 790545
-0.12749282035922826 -0.055846733960866146 -0.06581016091661629 3948353
-0.09302330744668241 -0.19898710711426304 0.5289982578915114 10389869
-0.10129815575799306 -0.08532475225005598 0.3513035013417186 1184274
0.09029572091728655 0.25820465216026856 0.3088196119026482 6382434
0.08033395111555364 0.08774616073872465 -0.15417027105187076 198408
-0.10250706644318996 0.09884806683392133 0.34573092442764974 5592400
0.05211709177855961 -0.10451209785865556 -0.4214160994011492 197379
0.1207392822034905 0.03483256015034186 0.3783550918515831 987925
0.034240745224922264 -0.05382269393203831 0.5345411477120804 1119516
-0.11520681947585198 -0.13720732171049033 -0.18225304697788525 7040110
0.12500593899889068 0.0009794117855257412 0.7819341757843467 1644825
-0.11493569139387483 -0.13144925026119791 0.12844217284776327 329994
0.19430509489037884 0.00026649659003918913 0.06898442438980645 1119508
-0.03427969370306694 0.18377157957082169 0.5114636530544724 8548697
0.09457249641116072 -0.2198472683887127 0.08968788617356449 1250065
-0.10443004377371734 0.05983234084775457 0.3192112339068852 987667
0.08081805609492854 -0.2355911333201135 0.11648631855390634 1184787
-0.0661875631953519 0.0978300779395691 0.03337075286708535 461839
-0.11586237957142953 0.08153107459065367 0.5797575068985911 3288362
0.14285243730906183 0.13975407529128958 -0.05899245979292023 2105376
0.15756769066159038 0.006400591518356258 0.05703142028293684 790029
0.14225278721270795 0.15093832603077928 0.16480731358856748 1514009
0.11320086746794189 0.18552392920012695 0.5650485875818171 11575692
0.10514024277266842 -0.12988191333228194 -0.41544455225510324 658957
-0.039917121018591795 0.1092577027973669 -0.07845982112644767 330503
-0.11916036418055609 0.08918602740373549 0.2817835622219328 7961466
0.14725723964449067 0.08675006924055761 0.03287989070089148 1710618
-0.14249026680075083 -0.05748768413625571 0.11341399837863497 856340
-0.09097086512466457 -0.2107277231466802 0.46825347299990694 2236189
-0.09297472546361996 -0.20667972271528923 0.502808999438883 5852737
0.1504322539463392 -0.11045805254771857 -0.3162375045620939 1579802
-0.0968355771048357 -0.11828170364428692 0.5630499517487338 1909284
0.1937730612299291 0.019807160281134717 0.059833410866263814 1053201
-0.08637840605237601 -0.2521410771894006 0.23516809995511279 8751498
0.13890633003733166 -0.08286541976761974 0.19634747529793473 1579550
0.020681477436884643 -0.029959107425283182 0.7406171446275623 789773
-0.12174291015355143 -0.147681996623656 0.4486132733669629 1839369
0.1392316883585598 0.06977458469255815 0.4122519758283266 2106405
0.1294405255366453 -0.2599705364368443 -0.15451811450597386 1053717
-0.05311023580501262 -0.1926418649650774 0.019612757250696222 132615
0.02748081394918067 -0.26461735032790523 0.16701227686982956 1250069
0.02013447336237273 -0.028971335204405868 0.7147882937751652 1381139
0.14898775567872935 0.0318980154839017 0.11242366087338818 592393
0.022762013101920164 -0.24227978224065616 -0.0867524619406661 789770
0.024575026099879826 -0.2792239333051274 0.19351184008473232 921361
-0.13444938436041487 -0.02256795904015174 0.46824121117061346 4469020
0.03126717647259869 -0.23893470035903563 0.16803547408829533 1052946
-0.12105306218369583 0.00300947792268369 0.314510313279707 1251607
0.09910361623690678 -0.033344089074935024 0.3184660371171829 987924
0.11097784600782967 -0.0899172918553659 0.8023368590833265 3158064
-0.1117535856561711 0.05724702740252097 0.2620782077949725 658961
0.16558463551400493 -0.009520157222858039 -0.004824168317582589 987408
-0.12112770988121468 -0.055095522868009006 0.238151367132878 1250584
0.04745527217964618 -0.09950441856920467 0.7172247135250919 1645340
0.02749272285386617 -0.005168919375116765 0.7999417257454343 1250323
0.10210718181258249 0.02445438926586707 -0.1664826929035349 461578
0.057504375180886136 -0.09974365107626948 0.735137400166414 1447959
-0.0943306809093607 -0.2363087947883935 0.40959024175695 1185046
-0.004562341814063897 -0.14308401311048025 0.5580052211230643 3486254
-0.14535416893335418 -0.1738112514576189 0.58309164873487 8421490
0.08615812419207569 7.62531466134142e-05 0.7988186173158204 2368804
-0.164385068577942 0.057960742015988664 0.5569653397366269 10518105
-0.12496498900500841 -0.2389425179894733 0.4105354627151637 3750457
-0.14157696738064796 0.0016066882953911232 0.45732931457733594 5389611
0.12005411872685778 0.17916610744819028 0.15455254676652996 1118994
0.06674929329617862 -0.13582959646871773 0.7282221765155611 10193275
-0.03504147232400889 -0.2656022257504942 0.4146703161422788 5063222
-0.047537436071931616 -0.2814082798453814 0.3955867833511574 987922
-0.06359046414065839 -0.2827517986796164 0.3821595422206333 856596
-0.09254035029947505 -0.28660775698732 0.34620324487485676 1447961
0.057876453380191206 -0.2534274803458394 0.5266292075223477 10980461
0.02182789842624855 -0.2363571070962207 0.5511748401003514 10716778
0.005251092980864236 -0.25177096986354464 0.5327383902960937 12493450
-0.005356974064308684 -0.23267768982858605 0.5554330138546854 11572084
-0.03784575966859105 -0.2604298692233833 0.4481157600741067 1251349
-0.05215989055621684 -0.26177930242176384 0.4336697261674932 1513500
-0.063276319075529 -0.2647009385300172 0.4121446741583902 1710876
-0.06426054134906911 -0.26828920252803545 0.3851468587124792 1447958
0.02226270782770179 -0.05982995906980193 0.6343594375789482 6178895
0.027867875486933702 -0.05009546473400883 0.6474110842848494 7560020
0.03948705088063109 -0.23726610690316496 0.5451474055025062 10453600
-0.05325217531548043 -0.23380413047408322 0.5622565761766377 12494214
-0.036223041100483355 -0.2314701436188118 0.5052748350620092 9731163
-0.0412348613487632 -0.2435355147186944 0.4685257502266772 2630429
-0.046928063733284286 -0.245056719786926 0.45248414262586023 1513239
-0.03485535648502247 -0.20415299059278968 0.5651241632126455 9665121
-0.05720643175952422 -0.22906622330145154 0.5016845915359766 11770750
-0.08965197057701646 -0.22653780067196827 0.43965371911270623 1251098
-0.12149488448635881 -0.23593970278864607 0.3164977897321334 3751229
0.07823312164779184 -0.23254556592266917 -0.2461637409224101 8092798
0.05346397348437337 -0.20210313467300756 0.5577952519212682 7231809
-0.10008092681313197 -0.20778263377052753 0.44437141610980546 1315860
-0.11006361801760312 -0.2235512785052851 0.339038074700064 987924
-0.11129641242710919 -0.2097205819591328 0.3087060417748023 461582
0.0166428077677514 -0.2444474206674938 -0.14990219677844585 921102
-0.02072133243830665 -0.2445600526723446 -0.16155536896456624 330254
0.05788690392580964 0.06244986279276743 0.6271502841932436 2237739
0.055916622763266144 -0.1749427470597471 0.5563854952336388 5524544
0.022843952458097894 -0.17587961557949194 0.5684296474719809 3158064
-0.0338900010132579 -0.17558873555527965 0.5846115990913826 6509379
-0.11155451820581641 -0.17806864357582697 0.4404738903536717 854797
-0.09748056649225134 -0.1933068473455184 0.31540457695497415 132099
-0.047767113425735364 -0.2076224581905266 0.09290292512096066 197892
-0.034566752250788646 -0.21228763554337915 0.01944190726734074 395271
-0.03220147355697889 -0.21612555504326858 -0.045447725394258676 329221
-0.036881197843085634 -0.20877157617889708 -0.09250557929900949 592908
-0.038077749570976316 -0.22036447838144424 -0.11610789660187837 526857
-0.06965472553107666 -0.2213107557599172 -0.14187867068731597 526603
-0.06472887937308669 -0.17299779714698538 0.5860441816272984 8416599
-0.11901321336986292 -0.17555305608483263 0.5600960985939846 10652781
-0.11427397229076086 -0.16743215493069208 0.5031179573141981 9270358
-0.06304654532881582 -0.18501027601596043 0.16929110046274232 132099
-0.06511668800767811 -0.18881205738832607 0.09201869348866076 329478
0.06200101802759983 -0.15433803839869897 0.5591156241155818 3419177
-0.0359251865175112 -0.15059179091688923 0.6063296545358626 2566958
-0.03446333289570935 -0.14388365105736511 0.5915537428220287 3420976
-0.12347199483226579 -0.1429189204912822 0.5516738840747516 8746598
-0.12324659732580878 -0.14458532052402573 0.5327193552656438 7757643
-0.1298854044980542 -0.15268583925374957 0.5070184748414747 8875863
-0.11260393351063902 -0.15012074529919772 0.38381557233366503 526861
-0.0737497458661569 -0.17273655489855777 0.024824022996262074 198408
-0.06879999202460274 -0.17520213809291008 -0.0354279231329363 329994
0.2599414458050473 -0.1404225119324476 0.6990518172009851 855822
0.22076995562752844 -0.1388083318934501 0.7285572527048852 2105376
0.15262024826270615 -0.011495696524824961 0.7997253448314076 2302755
0.06100839343513287 -0.13594863732412454 0.7202622029166149 10189419
0.047162576370546105 -0.13968165310323322 0.5820290443146375 2762795
-0.12964416760841146 -0.13921461355031362 0.4796577807761072 7823175
-0.09916086867459462 -0.14985970378075786 0.13236603176244188 264201
-0.06904664346996636 -0.17717059595249784 -0.08559036742111747 658959
0.14030226262415257 0.03841979801123774 0.1642885197280246 658443
-0.10048058745875688 -0.16022608835611551 -0.2266140893065497 9145486
0.13863574823806268 -0.1082188022566637 0.8032021520855209 2894892
0.11499177263195715 -0.11054808811362138 0.7684545519556213 1907997
0.0871193003265418 -0.11237185654152171 0.7735871616448823 2302756
0.06910164740637081 -0.12288174310690181 0.7839234535452341 2236964
0.05477725923335641 -0.11488770633746048 0.7928115143055628 1842461
0.05124331768506951 -0.11942990051070757 0.5875147637012227 2829107
-0.06560656873843884 -0.12079709727727694 0.5955026645859999 2764082
-0.13247225706432775 -0.12500541819365818 0.45737107000757493 8940631
0.061580161591712645 -0.17055597172228154 0.4443903879643215 2696740
0.05982993851924179 -0.18973806649885638 0.2523386115661038 1251094
0.019383181289198248 -0.22908298298128305 0.4366992023483568 9269847
0.16065636063177524 -0.11328927064149585 0.7835045561025819 2960685
0.060008077793489045 -0.11167990610865841 0.7385167414834143 1316119
0.045662493740620924 -0.11156014246790402 0.7186378232355929 5326922
-0.14265866330767452 -0.10981223311101562 0.4792642114531883 7559750
-0.13626036853440882 -0.11028902031729082 0.4361206074521192 2102543
-0.11960879451211381 -0.11143276286868753 0.3357673642706108 593425
-0.1207109108377411 -0.11371869044577476 0.052290804091435494 395787
-0.11634232520639864 -0.11430223518426752 -0.008861865100192046 593166
0.045586338803775384 -0.258881541926133 -0.10490935360553 461064
0.05103219686096372 -0.08857625328704177 0.8044252470823473 2302755
0.03370846352193935 -0.08821580229251857 0.7987849818646221 1907997
0.02785949353197048 -0.09101450202898143 0.7145077437854922 3684153
0.06065539473546222 -0.09279577000444039 0.5952721458841267 4277578
0.029078802667899417 -0.08251605954948271 0.6178795768035664 3157304
-0.0010277710464021705 -0.08530707936925586 0.6284660061916866 2764599
-0.06814265571018518 -0.09019455862721681 0.5879105906995997 2304560
-0.09149364531519266 -0.08968335138932026 0.5819081302729875 2369840
-0.13331569834332568 -0.08798161924820658 0.5342763648308128 6115140
-0.15420741336320276 -0.08786169515478104 0.5045152144591657 8874836
0.19261199954987984 -0.23285368597762712 -0.35265547395856023 5263440
0.16276147086640647 -0.026351735413946198 -0.009636448562970634 987408
-0.12232085020008987 -0.08681830319114159 0.29047271900481075 724754
0.16276764780119546 -0.027366126158867576 0.030489281867777218 921615
-0.12623399787659162 -0.0861592685438044 0.20242876272719224 593168
-0.1418657159936143 -0.08517312383460318 0.1090093667851687 527374
-0.12613165682646255 -0.08482090536948039 0.019755019397170837 527375
