# .PCD v0.7 - Point Cloud Data file format
VERSION 0.7
FIELDS x y z rgb
SIZE 4 4 4 4
TYPE F F F U
COUNT 1 1 1 1
WIDTH 705
HEIGHT 1
VIEWPOINT 0 0 0 1 0 0 0
POINTS 705
DATA ascii
-0.04774573822041217 -0.1439059237672793 0.6634727686466091 2237220
-0.1909543702180201 -0.11168886368273978 0.84141541974732 2106150
-0.015644157920866875 -0.20418506054916774 0.6817007601708707 4079679
-0.04470307281083097 -0.13637256290638144 0.8734879554040866 8085062
-0.04838500691185954 -0.12190310989426445 0.8856280006768646 16508350
-0.044069719717911515 -0.1075363450208835 0.8971013713434453 16704710
-0.04219995514408459 -0.08480561398974729 0.9001233448156993 13809827
-0.03173538116029556 -0.06459925912403452 0.8999133688225265 4735807
0.00949611210568685 -0.2634868713677716 0.6200568298406508 7303279
0.013867898860628114 -0.20342894068755135 0.6709459185396833 6843242
-0.009841180843674024 -0.13273653627690152 0.8971290099996083 15187605
-0.014761834045649347 -0.08528736338716314 0.9078464271179645 16373175
0.0061623280180148066 -0.04378237010795605 0.8903305352131494 5256233
0.04044246697575671 -0.2658920611468294 0.6191728984735445 8026745
0.020370186055487738 -0.1544583269298141 0.8395953618673242 2628121
0.056782969526530336 -0.14584510576479026 0.7318021917343287 6241336
0.07410826032639689 -0.2006881460793588 0.6593598061673245 3026735
0.06132731822845716 -0.15237115861898265 0.768713505742572 13538177
0.13967434147909868 -0.2628475968147226 0.6073248799462843 2237991
-0.050724956410139466 -0.22453088232459173 0.33791776773654947 790547
-0.01574508653724882 -0.261402007668911 0.6247825701239051 7303278
0.04786830664293956 -0.024519044394191836 0.9031096322935421 2236187
0.1069365469007218 -0.25541669749175866 0.6395617749724427 8224638
0.22499113447118863 0.2710408647830109 0.6969666455349754 3883332
-0.01321537166547776 -0.050815242529493876 0.876672294456383 7628122
0.07333902249325869 0.014334945904853402 0.88107531962402 3223597
-0.2741000830539423 -0.16690354084317116 0.758709922358535 13816781
0.1258897423785429 -0.15021466533950756 0.6863855920593225 7886164
0.07079779115762536 -0.05744339631846307 0.9266414372061655 13147267
0.10815410443574097 -0.17795057994781072 0.8564254730299559 2829094
0.16843858723738098 0.14899066539608263 0.6497402325092603 1710618
-0.02327511374335911 -0.2688662656913421 0.6176456197031226 8553088
-0.09206990291639972 -0.27930685622913165 0.5979846040583892 7895158
0.07502766611666517 -3.4764428423317284e-05 0.8944355753652535 2434081
-0.28472602518757256 -0.12070051873885279 0.7747561437107671 3355956
0.16426298504576198 -0.20215572938265014 0.6400301053220236 4013373
0.16455667052173995 0.12576434230417677 0.6572197898090006 3750199
0.16880354063392206 0.15811294816742505 0.6558870305946354 3355699
0.16486535581270662 -0.17594480623948705 0.6635627542329106 3553078
0.10661347109990987 -0.14696383154047754 0.913172389830853 2104600
0.2049086841152306 -0.20047286009152865 0.620258843060395 3224350
0.19381087311543205 -0.19827783990915426 0.6285193612196998 5000008
0.13405631743369423 -0.17442866518307865 0.8559409795060546 2434336
0.12495801579835314 -0.08734462044956093 0.923914732265076 14599094
0.19434196442896196 0.1263582523796778 0.660941029176991 1447445
0.20887164360644955 0.01705032868348444 0.3338196697611884 1579294
0.10543767848039681 -0.18171128444912799 0.18456048903625044 2171688
0.2071081924666665 -0.15832100177380193 0.6579396453546777 7171435
0.21942501717576784 -0.1697122015491117 0.6274493693612848 7237228
0.15782999764619582 -0.1614823989137666 0.8668030468152774 1250578
0.13966047519702174 -0.11271886161381284 0.9119876236483984 2236445
0.1380042845908373 -0.08023924819936767 0.9184856565186681 2631203
0.14399984533674492 -0.03388626518639559 0.9228090936312987 2166792
0.13290268750131484 -0.02670736245679528 0.9081816584220659 1512722
0.17959032423809168 0.15009820730516465 0.8128046073596096 11904148
0.13925886065798238 0.16434638365301613 -0.09468791725643422 263942
0.07349951378449926 -0.2894442745586516 0.6379311844919333 3224888
0.23164117786089383 -0.15499095188136547 0.6340458915045688 5658196
0.16676707840512245 0.06581802149682003 0.8674409387410971 15981239
0.17563997416747573 0.08090914855547182 0.8546998632685012 16574408
0.23346962716386038 -0.14290754671763062 0.6672466836935484 5197645
0.21374430298131003 -0.14048819293336323 0.7492504824465249 2829097
0.1971783468971074 0.21579516526726295 0.78508694918241 3026480
0.10582526190381364 -0.17046268124727382 0.6715153326951457 6305598
0.16619151429483386 0.028117049785471915 0.897676923718534 14729374
0.22802738716330323 0.2597223702821547 0.7626539680772979 4013112
0.19328856235473918 0.12080784633485919 0.8313723696412736 16380629
0.19444310952021987 0.005356285568653307 0.2740227467727301 4079688
-0.01604740636907409 -0.11406045890125682 0.9069632393497291 16636596
0.21070322795827018 -0.14405425022640728 0.8221962060536749 1447444
0.19408021545681714 0.07496036877157364 0.8566478410408414 15718325
0.11890527637270054 -0.21194846312409665 0.35863781308843934 1580061
-0.1676728249306752 -0.16588815336878282 0.7182987995794987 3553853
0.22194596555719553 0.1010313955870672 0.8231224594677979 10851202
0.23545687511581687 0.16740005137688696 0.7972063205560447 6577770
0.22611912343315538 0.2163763705632873 0.7886774616988248 2829354
0.03493374868144977 -0.014871448994015601 0.8858561876344395 3420460
0.08960209507107059 0.023511150555929117 0.15566093493260968 2963007
0.21086320907893236 -0.10871135047602065 0.8797664604042665 2040091
0.1939105434189768 -0.08245687639130606 0.8978143191322328 7756619
0.19489082493011706 -0.054479673169280485 0.9049596811102409 14598556
0.19562421886303455 0.027479283947057453 0.8997013453536282 10653302
0.2490533896988087 0.21747387470702573 0.7806989629512653 3553334
0.06806394684661043 -0.27911089037371917 0.5074754251432638 1711649
0.1440996154454658 -0.04685245546132233 0.9216028357857611 1313550
0.21752846201922543 -0.06499572261908892 0.8894787339860848 3025449
0.21664601620711882 0.006595641281908815 0.8959501920730526 2960424
0.2166699799835497 0.024650261697292564 0.8969043299951545 3224370
-0.21915308478601572 -0.09672963182296956 0.8159603621593108 1776925
0.13588947676292662 0.1341871359183533 -0.047776761619978125 329736
0.21939286214820336 -0.08641826873247682 0.88314129828496 2631969
0.07414125471945193 -0.28439496794783237 0.5716833978305857 1909027
-0.06736879097469628 -0.18404055728064272 0.10016161626633013 921615
0.04353759083816422 -0.2921976112497833 0.6113693611661364 5000782
0.13658987627001273 0.034200358038823486 0.22438458705005826 2370613
0.19665519061591258 -0.11745210075202972 0.8845953298230205 2631459
0.12426649074876495 -0.10980590575222471 0.9248891463307753 4601135
0.07436085332440939 -0.08492808756766457 0.9334214377814678 15056283
-0.19078473083878456 -0.17016136918537383 0.7488482935359453 4738125
-0.2871598821945638 -0.11632214614750325 0.7704862960833423 6447967
0.13030813384379375 -0.13778219730042163 0.9006213567706667 3090982
0.09987040301559186 0.04394367491094542 0.3725299765791277 790547
0.09121496597789241 0.012798631030821683 0.884425747777243 2631459
-0.015000115058474206 -0.203354222251386 0.6739644558022557 5198160
0.10227760543887776 -0.23361105038218444 0.645070218530386 4145731
0.194595088941317 0.0968976506266992 0.8434249927168549 16444104
0.16568235728163105 -0.11189919986375418 0.9024148067190705 2763046
0.17425491326614423 0.20612934705897024 0.677666475748079 1250067
0.1735730924992041 0.21240904909438973 0.6957672350095667 1842204
-0.20371983273607874 -0.17117454872662297 0.7798064141328906 3422008
0.2731784656687007 0.014793015163944823 0.355694225533971 1909285
0.1936536063581164 -0.21197262317836718 0.5466884944245256 1842978
0.10270966549373689 0.0705883206235407 0.13104987963999704 2763573
-0.053771307491952136 -0.2114025210530852 0.21001377385279807 658959
-0.019821378090095376 -0.21039157654262497 0.18833976940320163 724752
-0.06921509556198718 -0.1990642052191014 0.17399464292250122 527373
0.11124119283632244 0.07483161524570514 0.332646517760796 1185303
-0.19609950691201908 -0.16529876196533122 0.8062542272258899 3093302
0.1842252582355393 -0.19809091108339993 0.16337425475644674 855823
0.22235130858196522 0.12657708793424538 0.8185293248452423 13088672
0.1656422163160869 0.2215800420153129 0.7559027640255538 2368546
-0.013405075832589264 -0.27618691174964827 0.6651345538329432 3159864
-0.19299657202006296 -0.17901500352879118 0.7231989996869834 4738125
-0.18318994962568855 -0.1826495899589331 0.7086617670792945 3817023
0.01084361038707804 -0.05691645729604966 0.9085346646456531 9598310
0.003203650127784785 -0.027123524595659587 0.8385821518863166 6110261
0.04472360128519842 -0.24134395474981218 0.35763686296718467 1251096
0.02283037175215219 -0.02312417941305145 0.8833633846009707 6245956
0.18775281226257107 -0.1649050645948016 0.6647912299698009 3487030
0.007409323062821382 -0.11818076331644845 0.9176529771198929 16568746
0.19394531137677068 -0.024578846669762067 0.9070699938322819 16704960
0.011121183231493137 0.08032306243074827 0.10961489549700199 460551
-0.13518799050512195 -0.223559592317361 0.664615418817498 8026741
0.01685515468944032 -0.22945147669285015 0.2778258714562505 1251096
-0.014202820985318332 -0.22493460649738561 0.6603710743798767 3684922
-0.0072378647398905205 -0.2500499771905593 0.454569462648617 1777442
0.001979055203406299 -0.21734551997248652 0.10946325721685413 657930
-0.01515417997045393 -0.23963048536054066 0.6409325077186225 4013888
0.09799342023391305 -0.0002813163474588709 0.894234437131008 2105628
0.17500986045148753 0.21349362563398389 0.7192908309880406 1579036
0.13375229506075664 -0.17180429445871148 0.6679326860404351 4337202
0.27372131369267233 0.21766661062357562 0.6391957919588744 1119513
0.09677207017468265 0.03914291586862895 0.18414869207111173 1383462
0.06444577108893784 -0.03680198721403616 0.92157966875329 6640714
0.013513532983811583 -0.24203278761580016 0.6359595150494504 3027249
0.13279254150960557 -0.05308396796844628 0.9137766589008571 1841176
0.09823504699724733 -0.19934667642731685 0.6582031433211473 5132110
0.02376352329489756 -0.0368273264993253 0.8964824584437241 3088922
-0.07723042651949369 -0.11351999075159958 0.87802744478254 16705738
0.09897279859169122 -0.025666497881228434 0.9075844404474844 1184012
0.018151258125747693 0.0676223884390752 0.12826468404835478 1645087
0.19206096466407202 0.1801552967956046 0.8066441245034364 10986660
0.07710091172789357 -0.16304954540220162 0.9009969925315189 2499102
0.15718872598791506 -0.029824919630887514 0.9234041148862238 11702133
0.015960372081975704 -0.2993483422811869 0.1497414630094951 263685
0.11211639673558532 -0.20321879089721828 0.06763680376227921 789516
0.16632525670932768 -0.017809835611680702 0.9186157200259963 14136209
-0.0773582735681847 -0.2012565531341477 0.6632697733118473 4474696
-0.0771357296844204 -0.17339803893081696 0.6707979169171687 5132110
-0.045073024298779185 -0.11645510016681415 0.6646270294485663 1842203
-0.10004894836845935 -0.17396891690530403 0.6772369695651379 7303024
0.10689610183518916 -0.2211592893483798 0.305424024850693 1119510
0.05108802434472132 -0.2245500108900247 0.1418504511241192 2236453
0.04107928148339396 -0.2566356853181868 0.4544526002171496 1514269
0.04862569128759753 -0.22645138889111482 0.24881809996244808 1448220
0.20145581377670846 0.033167494073035764 0.24905324339362922 1185305
-0.047106805715066924 -0.22487474569684118 0.2464390130615517 724752
0.19288626321125663 0.05823915045608996 0.8709808489132194 13547674
-0.22502281156396098 -0.1154966538842368 0.8107586479773985 1842980
-0.18678931602363189 -0.09429837894672088 0.844577148683678 2040096
0.09044763838196618 -0.2349479863095858 0.09810574264717564 724236
0.06900257841069912 -0.19754762832514738 0.18663780329899615 1908259
0.020537020915084858 -0.2685936046586588 0.6299144603457545 5856091
0.07631788237146642 0.0707058275485688 0.13027939539014488 3158073
-0.01697669284810227 0.041473594907250444 0.24511516410876055 1316890
0.10650476294367528 -0.21772862584664843 0.11043696286973725 921102
0.10455129045581629 -0.20352968817624362 0.1260685537200863 1512470
0.07886112394116834 -0.20633686475343427 0.26331247488458875 1448475
0.04368475813977124 -0.2748424393015183 0.5437955534858676 1909028
0.10681423104070642 -0.19302503249019431 0.1530354164755945 3617083
0.07748103077290047 -0.24030373028120477 0.3899572946834653 1514268
0.048667843088263774 -0.26674922078172036 0.6323952985484971 4409160
-0.10316056814280317 -0.1410969603626644 0.38480348259472374 1776921
-0.07458854855725211 -0.20312104486837623 0.3924235934983442 1185303
0.10340751914773849 0.0797843594959271 0.31595083404483293 1316891
0.10521512394495641 -0.23311923763810016 0.3982925090257803 1580061
0.1603006587507242 -0.15717889841510635 0.20558192476801995 1053464
-0.07088843005284645 -0.2298148831255702 0.5109410669776053 1514268
0.10363453519415033 -0.2588650404343309 0.4935181855317625 1645856
0.1677912707763864 -0.1664037152645046 0.25456048128599695 1119510
0.1284936510214813 -0.22597736944149704 0.4295878714716852 1580061
0.10364109055615589 -0.25884766903029033 0.5170207825387008 1909026
0.10992243369628213 -0.2594346763009159 0.546076276030447 2237991
0.16846712927802593 -0.23373042071164063 0.48888664539161986 1579548
0.026555869129130383 -0.2491788310322791 0.39138841309278716 1119510
0.19113565809748906 -0.17962946898577048 0.17213250444538053 855569
0.17907591282274676 -0.17138202761756705 0.27861632602888764 856338
0.15841901632851002 -0.19368756836713552 0.3328622047851739 1382682
0.1227116628031924 -0.2543941795623872 0.5687507149078708 2172198
0.14439554113118247 0.002863435983400553 0.8583864934143914 2696484
0.10269298697110724 -0.2827970693798041 0.6597758146610289 3421750
0.10430284743405732 -0.28788512240598774 0.6479865625297627 2566958
0.194929910812433 -0.20420943222493548 0.35042882239109674 922131
0.2014298105403876 -0.16406022117917396 0.35590957789433464 1645596
0.18993255131327463 -0.199524067091164 0.4394397846488627 1711131
0.1710760552183606 -0.21404654129864076 0.5231199736052481 2237991
-0.08717409841569795 -0.2182505838801585 0.257634625657573 922131
0.16920687727646505 0.021853438216028476 0.4064028867459295 526603
0.16008640752311126 -0.25044292372224475 0.6073120498163178 2106405
0.038658644649993634 -0.262404998113126 0.47537166939109987 1514269
0.21034969643472606 0.021783494610468246 0.21584944769384862 922133
0.01517531142022338 -0.08481928991172993 0.9275212049050106 16568235
0.2159814894213899 -0.13139737426134745 0.1753689954764286 986893
-0.015783535535860038 -0.14314702599588425 0.6758138788366403 3553079
0.1422243289338067 -0.2329390039595054 0.5666571138718988 2369577
0.15791784459020936 -0.26918567197588583 0.6584343732643438 2303784
0.1144227955658989 0.045689665205013164 0.2524654532637056 263689
-0.04148126692954529 -0.26560918612038753 0.5725983007320061 1843233
0.01997444826055128 0.059239055589415335 0.2756285089069619 1119511
-0.01816721368828611 -0.22847011770971148 0.3368477069111051 856338
0.16268815431390826 -0.2552231712380777 0.6410594666265204 2763820
0.25685592877777536 0.23973605080087923 0.6463675620537797 1316891
0.07970911163100503 -0.24028350432260193 0.3734766642438714 1448475
0.1956084035702263 -0.230172466319293 0.6093895330780066 1843233
0.16450848275917085 -0.23153672439987671 0.5166752678634361 1777184
0.17292332507377145 -0.2128173417471324 0.4531432580362629 1513752
0.17783458917334877 -0.21560017478151283 0.5501696933407412 2172198
0.2129983016281985 -0.22647396956443888 0.60839070265385 1711127
0.19666087787726444 -0.2295093233161507 0.6289363452213987 2961455
-0.0478785816881529 -0.18553045977293747 0.04332275753811232 395271
0.18839578143934316 -0.17619087582137638 0.339459313670988 1580061
0.17377703015560225 -0.14553145648476695 0.1918282926073971 2237224
-0.04965037656614235 -0.23104086520042322 0.310107092579589 724753
0.13921355758982173 0.123957102993975 0.005162114675546947 197895
-0.13443033137392407 -0.1435325559157823 0.844636235790627 4867663
-0.25540031768102694 -0.15976981198672213 0.7778688515694503 2830130
0.13473902639719015 -0.20506727599424113 0.3078527732831049 1053459
0.11804091591829985 -0.18223497310499925 0.15391986772811284 3945537
0.21374696749379568 -0.14441557968712693 0.33472783177393906 2829612
-0.13423600762861657 -0.1914122723451004 0.6841316619613385 2830128
-0.10306410513061362 -0.13790983193529338 0.35833501939294354 790027
-0.11695298250396252 -0.16955374288712433 0.6876864241360792 6514280
-0.008354623824768481 -0.06315188332214494 0.8939893998169919 14136483
0.03482491916115704 -0.042103869305712305 0.9119259550781791 2498587
0.04695200472052019 -0.2450696658914735 0.403123253749879 2040613
0.05482486448212093 -0.2790623667106702 0.5073520969246277 1711649
0.13755238424946065 -0.1859409476866194 0.1370620235144575 1249558
0.13888278269232568 -0.21640819118683297 0.411783289189221 1645854
0.1311753293093112 0.08274475764586509 0.15060921799611426 2499372
0.06989258006335142 -0.16013976143370656 0.6825983837611209 2629151
0.07570823569470408 -0.2921665343637272 0.609020542084445 3093043
0.17308917680694397 -0.15339533044426545 0.8479644171865872 1381651
0.24477353344627711 -0.17552562446122688 0.6087460374719453 1710870
0.10500344517319687 0.09791929749866446 0.09705970494842342 460551
0.07573893141897808 -0.2238778136657873 0.3084378487571804 1119510
0.24525382581446392 0.11671575107530519 0.7954220340255498 3356207
0.09594347990441537 0.11302779253398265 0.07538031117439292 329478
-0.136943043787144 -0.12016451602488698 0.8559482299243895 7432819
0.06711900697051609 -0.2279409497091769 0.33665087541101024 1185303
-0.1981399865641275 -0.146756339314698 0.8214632642475181 3093300
0.037778548506363585 -0.14627514416479426 0.6700769567981268 1644825
0.049147463772887534 -0.1348624604310542 0.9229841412368955 16238240
-0.01451153821131096 -0.2726466217501482 0.5477745930680318 1777442
-0.038713655890902865 -0.25552773503675974 0.5237246457278022 1382682
0.13590708042700156 -0.1642375311865918 0.8663754410297801 1118734
0.10555883849753928 0.10406134943966938 0.00574322031301755 263431
-0.19252679974200204 -0.19979538339945546 0.7049669750464389 7237740
0.04708662393031676 0.0776480836707989 0.13816388595091356 2236970
0.24960938217826217 -0.1493088072029558 0.6336776106463768 2500132
0.17996898274843282 -0.16683481260863564 0.09065368102000915 395785
0.1098245516173571 0.12866626139346082 -0.09118840607191858 395017
0.10760197684751382 0.030571762351944587 0.1493807085207821 3291714
0.1058096872080595 0.06717832650888367 0.21955417432664315 790545
0.1957719174849611 -0.16709419636084322 0.27381679993424246 1118994
0.09749396182571518 -0.226312690153595 0.3349518330290546 1185303
0.07494145776952066 -0.2806445305541856 0.5498611938179285 1843234
-0.16103530490250853 -0.08848022902237918 0.8475150474639555 3288624
-0.09224786094633108 -0.2753557912129496 0.6120255922728468 5527381
0.14085392085756526 0.05928239825478432 0.1325332105976056 3619906
0.12084209158163933 -0.19307878839663872 0.247842041871579 1316889
0.049429675352684554 -0.00030889986467741437 0.8836209716685919 2762789
0.10476045312346799 -0.20150283505113364 0.24810369105234598 1316890
-0.0624871624759305 -0.22054018333655656 0.4598614426901466 1382682
0.21481992317148318 -0.07617964806731581 0.8962953794264035 2828838
0.04376733446460457 -0.11449427507970422 0.9303802072587855 16173989
0.14075498523726676 -0.17303395628278362 0.22423540000776798 1251098
-0.040029373285215664 -0.2277989591786247 0.4229920614709983 1119511
-0.05830332508544023 0.03348481303124262 0.2301002424100329 329478
0.1459800071834687 0.006438052846307052 0.8869507434176713 2104858
0.1331352033868003 0.0927989922897372 0.0943850205369463 1118484
0.27421659306852014 -0.109041070587518 0.6678793848517164 921099
0.2067487369267234 0.2494653327479157 0.7624417951817597 4210752
0.01381994733623243 -0.11849858371508426 0.6667968327963327 1907995
-0.01591655134401554 -0.25656368236457805 0.11488681643621557 526344
0.2315107002718248 0.05145046396943753 0.12401293610213493 1841695
0.07026813777095192 -0.1676275477524889 0.868504206464892 4140586
0.1493646590581056 -0.005495926217102154 0.9062710674875498 1708038
0.13936254738355042 0.1069155388046239 0.06363027396274801 263431
0.10609920715290594 -0.2822552544823791 0.5898064528393956 1974819
0.1328871258933642 0.10950804046593277 0.45743135581990524 1316891
-0.07341669320333044 -0.27094155696257105 0.6125103321130845 1448218
0.11011752492888977 0.14655702357465294 -0.09329414423650495 723982
0.012659186300176428 -0.264583664154449 0.487106985048827 1251098
0.18451181825972146 0.09239325730743708 -0.02415985554816691 197895
0.13920829475658697 -0.147863138521092 0.8784785196783076 2564638
0.13301619380831659 0.08263833030306267 0.29577645029368704 1185305
0.16113746509686877 -0.05218860375837808 0.923557335048993 13609870
0.23346827542905496 -0.1356019199378684 0.7213699744049149 3026478
0.016810262288284195 -0.2329501391686568 0.24670248352642465 1316891
-0.16507195383221043 -0.16322532497634468 0.8208604141686238 3751230
0.13478956932304237 -0.23094081296099267 0.6378650572703037 4408902
0.08055948514794437 0.05122146126372651 0.36044571407669945 1711394
0.04588543849386845 -0.2710316472403247 0.5155531809588512 1843235
0.09891377942569013 -0.25515877488862704 0.438007302335512 1645854
-0.0378927646606258 -0.2195275488828965 0.22007839807747032 658959
-0.07946613146046527 -0.14927010052105327 0.85795078845684 3222826
-0.18568262436036234 -0.13866458765181555 0.836122564449048 2961715
0.05057274235127579 -0.14587677032022572 0.7002832868177729 2300183
0.2797310475861127 0.25715776637043875 0.6911309385237172 5067605
-0.09482005252817069 -0.20560479327891268 0.49105152397014673 4145213
0.10172578243361802 0.04384764072538272 0.11709636576769555 3224895
0.036095158017149576 -0.2741339294206109 0.11518977770899941 263685
0.019163934006721284 0.0927098778080464 0.10114764618950867 526344
0.2251181266136471 -0.18192696955420185 0.613599607047143 8224102
-0.07914650903493164 -0.22766485785950996 0.24961050516598204 725008
-0.0487458002035131 -0.20194616447911473 0.6657693294483564 5395284
0.1766140821920376 0.12584054025066327 0.8214128281495074 15124396
0.014540303923280928 0.054015385894893075 0.15431666951825362 1053719
0.00958272763987722 -0.2117819499720932 0.12509397630995256 1381654
-0.014805930140999846 -0.16742926815810377 0.6786872026850266 3816765
0.253101545112474 -0.13108414024137693 0.6954836262708264 1382164
0.2829421432978327 -0.12153945876697447 0.6416971287974984 921613
-0.2244140825101778 -0.1816525462085523 0.7531886712102132 5526869
-0.04499609311796954 -0.22738292550589456 0.3749452094780201 922131
-0.2537834830150492 -0.14080512408130264 0.7871756110406458 2303786
0.07204436061542091 -0.232070850843072 0.10596446323100017 592396
-0.10444825652951847 -0.28375363159078804 0.6258251256591834 10132374
0.1580464812919496 -0.19652935911687264 0.3071598294587947 987924
0.04908427251886699 -0.2498548797531175 0.38409134371299114 1316890
-0.2571033955139404 -0.11289030764235286 0.7873265200006228 1777442
0.192605613753648 -0.20888144399142528 0.56837982490892 1909026
0.14801256707238802 0.10696512176102102 0.026498812470691968 395017
-0.068085636254968 -0.18125903500729068 0.1301869564893725 593164
-0.08214963375261519 -0.21230265568998852 0.27574549856228026 790546
-0.04338873680439259 -0.21298243576146736 0.3421074891398983 790547
0.16592682938477 0.10147055138557404 0.01503117403206189 329224
-0.08065942637407442 -0.20630819718143445 0.33432777735428343 987926
-0.11794042590116063 -0.0925051916273123 0.3266670780396834 9737613
0.0908913684931229 0.08224809373276942 0.36926793800362345 1316891
0.10214507496296937 -0.23042366993324181 0.3707892659690897 1514268
0.1451876947422323 -0.24480410921097806 0.5205563471829353 1842463
0.21284573725351336 -0.20371237384042984 0.5636226552806236 1711647
0.054284766030313014 -0.15995229650265852 0.8665893409412488 6634287
0.137792607592451 -0.2422917422899571 0.5570170557141101 2303784
0.1911342786673989 -0.016222286171538425 0.34897057922124297 329994
0.013422786925410934 -0.28973319386103347 0.6066965147427208 2172199
0.22732174568033253 0.2465202566147291 0.6984823565422431 5857894
0.12702484184373447 -0.28316108612280644 0.6379974342202983 2106406
0.04631013304842435 -0.05751828928719638 0.9279591139655614 14005399
0.19113514518195734 -0.1338364358847257 0.21711530621135378 1053717
0.02979047677486152 0.04765940454063555 0.3330817769513186 1119510
0.0861994104516905 -0.21038062465422724 0.1348261591780633 2104610
0.03922597465711336 -0.21063561650023188 0.17838848536799468 2368810
0.19732867539923077 -0.12303669627629343 0.18528283592917827 2566188
0.22090703857496258 0.15864886316917448 0.8097852516837412 12695736
0.07438339748305317 -0.20695859073341705 0.16325424289700607 3551034
0.15600050316115416 -0.1619284219137429 0.23049452847957497 987924
0.07847317145520366 -0.21210763633974272 0.24458005784082304 1251098
0.013529496439030064 -0.21690281706614778 0.18608340340449825 1579550
0.1276015094183845 -0.20056730442420512 0.126148374991365 986640
0.10476497858314954 -0.11576029148779687 0.9319171428061785 14593424
0.07465747036617998 0.06683254864861499 0.3329597284320982 1514014
0.14580100197926532 0.021645479901142295 0.31501110434047086 1185305
0.1711611588204333 0.18873890574984165 0.665547732392685 5000781
-0.07725478599145685 -0.27040224529308676 0.6381196168932941 1711647
0.1100842670943119 0.06272406824960886 0.10512780718926629 3750726
-0.1621174590741127 -0.19760142297202643 0.6919701459279339 5592917
-0.07759007639235271 -0.14537643128503874 0.660891535589212 3421493
0.12958465371204442 -0.2094847992327309 0.339011465290171 1579804
0.18994987479086528 -0.1434482888543609 0.17950009031337277 2828848
0.10788923531414762 -0.2727858050669463 0.6071238056795152 2566957
-0.008137382695910966 -0.23864103226869648 0.37117196912112815 1053717
0.07328002223361813 -0.2688703904451215 0.5176321664121724 1843234
0.00900549050632865 -0.23588152649312488 0.3100217998955501 1185303
0.1341502658677825 -0.20150986289901152 0.10086394150455891 526601
0.18274811392629103 0.20066677389968124 0.6886005222623606 1185303
0.186058710977482 0.18428347382962995 0.6746789357923435 1185047
0.2410082587084143 -0.16524200700187963 0.6219027512839097 1776663
0.13110701749889575 -0.2843655480252534 0.6650256880181447 2566697
0.09664407751521159 -0.1638046428883153 0.9002964669351441 2433311
0.07199408167652993 0.06489707776206055 0.38234330011552964 1316891
0.19632181391468712 -0.1749825016364963 0.6393138904416606 6052957
-0.16266240584141664 -0.11516204082283221 0.8495790212338221 3223351
0.20543346618409514 0.2677471240904903 0.6891419828190317 2106664
-0.10677348964849029 -0.14650458061943938 0.851681189040046 7566193
-0.2338498077745479 -0.14969281018772507 0.7970812795098237 2500908
0.14532124928583162 0.019929270977014024 0.3810480077892282 461580
0.0341216588482714 -0.12082131666802454 0.6571386055253574 1776924
-0.20321721404977056 -0.11967333633667443 0.8286334930285255 2106407
-0.06889402968344621 -0.2834259562277224 0.6371622358693823 1645854
0.07370489625702742 -0.14804179300126852 0.9152048586483035 6703932
-0.08299539604137515 -0.20481752924008423 0.45783368527218427 1448218
0.2012806942232646 -0.14746638671710643 0.1640626241934282 855313
0.19358084790708247 0.1553458289841847 0.668901615931087 1316117
-0.10337166451488555 -0.24840062572740362 0.3301753141443826 1316119
0.014890886917786117 -0.27560420389796847 0.661887082259971 3160120
-0.003921445729057671 -0.21841147938788752 0.19840569186349621 1053717
0.13514773252133433 -0.22039420306838653 0.3924547802438152 1711647
0.278652311488973 0.2691940239587729 0.6872418338117308 6317414
0.24222735078991436 0.10300122151167779 0.8031978475954342 3421487
0.11135930966604879 -0.2101680721032433 0.6492266097533579 4408644
0.07944912956502875 0.10062558676548194 0.10195368135800642 263171
0.18624831424908833 -0.23195230563084523 0.527825354341521 1579804
0.11657840297047373 -0.2385879622944802 0.45784751612854535 1514269
0.11000041415645234 0.06750034152302264 0.24848277956533127 790801
-0.041043744558502016 -0.22630820008052566 0.39532879988540603 922131
-0.08113233589192864 -0.19442554006147894 0.3629503336241524 1119511
0.10216137983917023 -0.13564585450463373 0.9230935560799725 7359542
0.07078684244903749 -0.25775812280684085 0.455718817985417 1580061
-0.04871202057256385 -0.18548824072441028 0.067317698533788 461064
0.09822438839350472 -0.26872203777161574 0.5638715788602091 2040612
0.07409727563374324 0.06662284956861608 0.179898375034949 1251098
0.14890818770824632 -0.18094232465966043 0.2712336155372401 1053715
-0.015533785886817975 0.05403066603363582 0.1836518201610191 1053717
0.11539642776569187 0.06189345147748537 0.2806760362487508 592396
0.04136269738738019 -0.2174849297868322 0.1548346393261717 3025457
0.10860040174088359 0.09464031386601723 0.125646692265297 2500913
0.07863589586980857 -0.20559730227639572 0.04629669066970332 526857
0.10352929923188403 -0.14972003293496483 0.6853419394440601 8278354
0.2528606635539799 0.24706716077805657 0.6678437209518471 1645855
0.01613578265713217 -0.27070478809759524 0.5162212573317486 1711648
0.15529323555062663 -0.2000746355972618 0.13307986073328237 658957
0.24965817302587273 0.18796583897483066 0.7870649520432298 4013626
0.016697517457884947 -0.28559405516742387 0.5759340402998891 1843234
0.017938750295498018 -0.27523560291850946 0.5440506972567372 1909027
0.041569044768889285 -0.23620039461140552 0.3166570359504197 1382682
-0.016856473948377637 -0.28009907487035823 0.5786779033270504 1777440
0.044606295659402495 -0.18787954978150512 0.022161055522193385 329992
-0.1032335026196603 -0.20638095389518551 0.33428255586824096 1381910
0.009827022900564308 -0.27909351033987573 0.5609362171437158 1843235
0.1318864790841393 -0.25226626683194686 0.543356288608499 2566956
0.016069286206712385 -0.2452802514802035 0.4268344803350752 2238507
-0.22873606662593482 -0.16660474300240624 0.7856557364910648 3553594
0.01581624568796519 -0.24330103288875926 0.4036839078510328 1514781
0.04100654662914838 -0.22508760283159446 0.1274158345502323 1315606
0.07261638064553239 0.09315066310291664 0.1208078097757741 2040103
-0.015406208517494302 -0.2824633900204281 0.6365057667496814 2238248
-0.013080092961499146 -0.2889827729304091 0.6077899000664884 2040869
0.010815798316683223 -0.25565205936891533 0.4581801809031072 1580063
0.2740108705449525 0.19109266389528412 0.6336957879043741 2172200
-0.016402039160986426 -0.26538545421144155 0.5158296015090518 1316891
-0.01696665625709204 -0.2598644981606437 0.4938798295347384 1316890
-0.01196678021248665 -0.2433537431257191 0.4245921912589268 1382938
-0.04653743831478019 -0.26502894091028506 0.6366131968813677 5396053
0.13416727026896758 -0.25052139204531043 0.5093924784594575 1711390
0.040305201568878846 -0.23167179620803635 0.32919374174186 1185303
0.044111809958064296 -0.24629496233811343 0.4280863285775176 2172199
-0.04118790916304188 -0.2836088905058489 0.6096167046312193 1711647
-0.028282399201642106 -0.2682583672115515 0.5626931092102778 1777440
-0.019479732462492405 -0.22707947209475976 0.2748438474753645 856338
-0.11800378685396357 -0.11946388163467958 0.33088528335994694 9408394
-0.015222895634594225 -0.2334351429818844 0.2471478957928992 790545
0.25644484759402014 -0.13753607899966513 0.6678850863291745 1315602
-0.028710405770017544 -0.21743786139870092 0.3471987322937895 922131
-0.015266581894723852 -0.21502004962689236 0.10632592148432463 657930
-0.015036932873542741 -0.22877738485076238 0.10118386860673856 592137
0.2187463811922586 0.2621729780809281 0.7586711674746902 3947578
-0.0700745991204178 -0.12965616805563251 0.6497575572638872 1644825
0.043481141121557154 -0.2190191738525773 0.2198448340212753 1448477
0.04401637277563669 -0.14448438265692154 0.9056169736526578 14658188
0.07024340690371939 -0.2680563458169918 0.6382450097482584 5527384
0.03879820691117897 -0.15577851334247894 0.8452841048347317 10776926
-0.07335804773810711 -0.27022161856870897 0.589253646206684 1645341
-0.06992467107905176 -0.24530404032765807 0.5482086437784839 1645341
-0.0726248953242728 -0.2078678096635136 0.42889599269527556 1316889
0.07542266051235547 -0.02111870126061155 0.9078527022376659 2762532
0.13233322728714364 -0.19142197146758133 0.6527402802827518 6185312
-0.08017208525242758 -0.2127555424356551 0.30676226023282327 856595
-0.07013103125420356 -0.2113425596674272 0.20986137540603056 658959
0.1929824816243046 0.0330519372445508 0.2746644520962205 1053719
0.13966713943363812 0.16119833144207307 -0.033770204527178715 461321
0.10613117314904752 -0.08402960040233931 0.9288137321604988 12162177
-0.0971610589352232 -0.2051012500795193 0.5062030027133715 7106153
-0.08889179447495199 -0.17869749709123806 0.39354505479595225 1448476
-0.0882847380845786 -0.18734172273165384 0.34695588087049956 1185305
-0.08641673023474652 -0.22129373175986733 0.20160428544622588 922131
-0.048543290280606055 -0.26716417367903644 0.657524395539743 2633007
-0.1031493608565387 -0.17575104018828336 0.3424373854048126 1974303
-0.10307205990923199 -0.21572895455286112 0.2735137524089586 1447705
0.02260936734029606 -0.22151883136901707 0.06760843617016121 395785
0.26312242598817587 0.1897607040848015 0.6580221292362309 3225403
-0.049800466174612645 -0.26748536482105023 0.6105776767317785 3421492
0.04276722401655142 -0.15289848164755404 0.8796768458216455 14787973
0.07890522831562546 -0.17324119418651218 0.6708377003937069 3353131
0.24926497537763664 0.10143931522247751 0.7831865362546426 3487281
-0.24668518603423098 -0.19546057107906578 0.7303148111198123 11514024
0.240441194538567 0.1255201427949686 0.8095529131471775 3552819
-0.04788575963748537 -0.2584550562614294 0.5502109223289631 1711646
-0.020992545304241883 -0.2429970567726596 0.454347770663758 1580061
0.059638966081397626 -0.2121250058467301 0.05505163906714294 329992
0.09928015125620543 0.12976286826060712 -0.016931934478741528 461065
0.04388093685762523 -0.08432781806310308 0.932777497882479 15186067
-0.10550314625594326 -0.26939012448606126 0.639057475608549 3619645
0.13854757199533008 -0.26042492289668195 0.6349229067977993 5066318
-0.07000098826046675 -0.22222861257641568 0.4827758516880105 1448475
0.16586674612250485 -0.08627502228958961 0.9126910036456195 6770500
-0.12592452549899077 -0.0831450470124857 0.8631469819707864 9474448
-0.1405051496701197 -0.08517468411564844 0.8535798984314342 7038824
0.21722607825596146 0.1780062230485402 0.8068344724707366 8089724
0.24657647500211527 0.1585339717299712 0.7940904025060889 5000519
0.2629949182669454 0.21239970439883393 0.6109371716028773 857367
0.025051925475085723 -0.061125861074356136 0.9251024655988225 11637371
0.015086016078741937 -0.14565725911141003 0.6685344340924113 2565927
-0.028217362909927823 0.040647218544831665 0.21614609703601695 1119510
0.19105790787503224 -0.17340614893464168 0.3920518166633389 1645596
-0.10314827999461246 -0.21009345589458794 0.30357483865947255 1447959
0.0780912568961874 0.07691121114240085 0.25697786002899825 1316889
-0.1613354830029476 -0.17943981249214835 0.7030123537488691 5330262
0.06963286015268694 0.07079593727607136 0.3674617589236373 1251098
0.18908952781245442 0.10082413423483838 0.6716906401339855 2697511
0.18960650623388514 -0.13734041361759308 0.876761606344737 2237214
-0.10338710473617532 -0.16363983417182149 0.43007034144345435 9408650
-0.30390341775330426 -0.12015186534005506 0.7648861756573 7237223
0.1954851156548108 0.1298607822069593 0.8249206530029405 16707536
0.07193256680992877 0.07812497175769084 0.28613780721799853 1382682
0.1972360288928537 0.038000782837612546 0.8875709094214057 10783862
-0.22245560466938807 -0.14154836926555303 0.8069050170339065 2303785
-0.10611640793306634 -0.20139264137731527 0.6682021132301705 3026993
-0.01354229480112712 -0.11742189795683555 0.6734185854642831 3421236
0.18764993651912115 -0.1072418184586974 0.893738292938199 3289645
-0.011453654798577129 -0.17776873526848358 0.6817974459212068 4211782
0.0475227366917268 0.060892505523311824 0.3374332896653074 1316890
0.07674752580942462 0.072967075455592 0.3101185633217931 1316633
0.07613021444441564 0.07178028463653563 0.21918945266470558 1382682
0.19556211658576278 0.0038426947479393014 0.9039700528101697 15321512
0.0689317972347307 -0.21318913370076675 0.6467473962633807 3552822
-0.021028018177579377 0.03078014890739378 0.2786612426420605 1251098
0.04003247604976834 0.0649103021355617 0.16037179279546487 1316634
0.2166662895592259 0.06201419374880324 0.07863074455010088 328452
0.22057908724168546 0.06170860841885273 0.12230088674396478 1512728
0.14448828979349893 0.015797002862939058 0.24670130377566335 1514020
0.19961168830536075 -0.1528435295880286 0.760022804773284 4013371
-0.06976253507850771 -0.11725208735157033 0.6459551126660692 2040094
-0.048884253208676676 0.021614443443608078 0.18134643511584514 461580
-0.08288881900607009 0.06233785323662966 0.05972563049237789 2960946
0.014948708956297019 -0.13710470013403708 0.903645107422862 16570290
0.16177370755560105 -0.18672561152282063 0.09327601916186512 658191
-0.12769464945311002 -0.10726961269184154 0.8628089414210414 11710897
0.19622347137590618 0.222085497194199 0.7136434041664168 6252655
0.16452122318124746 -0.1625125422106548 0.6891124089436051 3618100
0.0807512699281337 0.03702036293680644 0.13449804164059698 3290688
0.15969961099329838 -0.17753310127075594 0.15885912503240718 1841696
0.20211033920017024 -0.23359890289029606 0.5552092314837254 1513752
0.1648373643502904 -0.23115821184021024 0.6353470198627449 3882043
0.13852672759793427 -0.2695829088077417 0.6667496619447586 3948095
0.14924950386018465 0.17401991609535283 -0.024207038765591937 395271
-0.13307655541779626 -0.25685040237530665 0.6422685744212504 6119779
-0.036480478892869594 0.049616741985524904 0.14458465962150657 197892
-0.04102215151477151 0.04266045417404696 0.17657141723006542 329736
0.19020724944636364 0.036426165981233494 0.18541087279778146 724752
0.07698687699126222 -0.2708077708771506 0.4916440742327193 1645854
0.17281088505546444 -0.1780002834077823 0.3864992769846969 1514268
0.14795587165162138 0.07548250368072185 0.2832530832127509 1119512
0.13892107123056335 0.03839371567028693 0.2804057980321448 593169
0.13373477248332427 0.06889588881323983 0.30862468025958356 922133
0.13555759235732917 0.038165848598539664 0.3092120299374388 1119257
0.08226822866958977 -0.04560889287923087 0.9204803562131678 1707268
0.14303831772034692 0.06953838633383169 0.33240037489339547 1448477
0.25145825322778176 0.27524465474448245 0.7030567509557184 3751490
0.20203595647237188 0.24729986987220132 0.6986443251049756 4080713
0.16957055698148388 0.0445965777394588 0.33104957770460564 1119512
0.1383677868274238 0.06772380482718243 0.3613931492849407 1580063
0.11233502242327298 0.07561421567427118 0.3702244841989726 1777441
0.09133574680390688 0.07589503353058635 0.38196068403854366 1448477
0.014429494602419435 0.04428110834169807 0.32705502990436464 1119512
-0.033667216646037446 0.02866424970568504 0.2997067322032265 1185305
0.16253219959354948 0.03241168909032277 0.3014071244729404 1119512
0.16242349071496326 0.05369879919653453 0.3220659281165239 987926
0.013099941298078177 0.05000908474689858 0.31233691585474155 1053719
0.16280902588983964 0.06564026774536025 0.3051406484449628 856339
-0.048781282615593724 0.025537339781740442 0.24312386486258153 1053459
0.2307241178213985 0.297049132395081 0.6941236384338376 4474957
0.22739387098809355 0.27130504574082237 0.678739598644474 2961717
0.2194000716120586 0.012830795203961909 0.18627121774227673 987925
0.17436935178877916 0.04026794853928939 0.2471468857537762 1843237
0.11313416495830536 0.08399484744937924 0.3063876364693918 1185305
-0.04572639711238141 0.01984598019833328 0.20625911270459896 987924
0.0709860598099295 0.11550497208090937 0.09777999101574286 328966
0.2455477035009191 0.011200241882793449 0.15539135175135055 2171688
0.2288522804783069 0.01408676541913012 0.16020718309362914 724241
0.08769922516022505 0.08353183538244524 0.29626794200044326 1185305
0.048556957271739754 0.0748693654989867 0.2796956425514441 1251097
0.17930904308842427 0.045164746152936974 0.20131197521085165 658959
0.13999072255177725 0.07063875738597103 0.24704028000911582 1185304
0.04704887765106325 0.07752330062202883 0.2573145959898564 1185303
-0.012554498906599654 0.05343831156651446 0.2116294625064017 1119512
0.2470596112847328 0.02461366535243359 0.13552514582159692 2368550
0.04358725726731455 0.0674638352897663 0.2102808315356568 1251096
0.00937135282608409 0.05629414139789368 0.18852707933556534 1119511
0.18721508271209814 0.06485788697976957 0.15496382593990332 2170919
0.13925603522380287 0.06236561198819435 0.17353477338409395 1119513
0.10718878657985115 0.07218573127631034 0.19136771746853132 1251098
-0.00785716533090619 0.058031467405509796 0.15106811984994573 855825
-0.04955996227567033 0.06392657443649519 0.17146838564147826 328965
0.1060074699843861 0.0679705847699168 0.1526163315264486 1447707
0.07307390155459409 0.07100505413103875 0.1575996017810266 1513500
-0.01322942605465055 0.06340515406446756 0.12452303549607802 197635
-0.04011040457778986 0.04991564034537843 0.1135946794893381 197379
-0.04992024285176083 0.07767027350287137 0.16715760057285767 197379
0.19828834984335214 0.07717722740770494 0.12513531731243255 1578779
-0.018319492395781456 0.07115239149280339 0.10143251578073409 263172
-0.04751400491610164 0.10185558581488774 0.1833718883935298 329478
0.04629618840869737 0.08675758361319819 0.12361077965760403 1118229
0.028781861687698085 0.08353888022887945 0.11661204393789748 460551
0.21828409955547984 0.05786377018247135 0.03534920805508346 197379
0.1996259597072338 0.08067366363194828 0.08174107450735302 197377
0.0455120944106186 0.09618008012603796 0.10907337579043364 328965
-0.009426023692588714 0.07980838293000603 0.07374404301685922 394758
-0.023122412455236774 0.09603718595734967 0.10673843628162061 328965
0.2211367419817037 0.034567355938679434 -0.04996277808620908 328965
0.20103357610219535 0.07109598254789229 0.02617238050169468 197379
0.1653337579386922 0.10500257385372391 0.09632144382299357 526342
0.2021340973926628 0.07079574035153602 -0.011903561952007813 263431
0.183596158706346 0.08358502510672428 0.014957476730449004 329224
0.16560919188029233 0.09875262980417787 0.04693945013479617 263431
0.11317284960853657 0.10982109887035696 0.06904122846643146 263685
0.13063868720864302 0.11899266089140248 0.05230865254821038 197638
0.09261868472287932 0.1049371781396311 -0.01911807635259377 395271
0.185670549800738 0.09201211157749656 -0.08677268888014167 264201
0.12128275338139255 0.0712337054387473 0.4170891658963589 922133
0.1865872400951059 0.08751442585871216 -0.14107931620271863 395787
0.16695020602538685 0.10621730574192911 -0.09788851399935217 329994
0.11196416619511401 0.14393280314302714 -0.011336625126449063 460810
0.16732973589824385 0.11603991119230828 -0.11942640800238102 526857
-0.10263209177277596 -0.23920953552249635 0.6423270020810885 1118996
0.1279543731586354 0.03703792902525205 0.24464653841182393 396303
0.1269361727001755 0.031060771460630354 0.1998557668454295 3094593
0.16211048707203746 -0.14288422020453684 0.880682105762256 723719
0.16226668944609435 0.0060435265962146545 0.9073734251886607 13282444
0.21921535546639387 -0.025451830274842324 0.8954460002471356 3025189
-0.0437594151518057 0.06663977914263963 0.08042822085529844 263172
0.17175300521474762 0.09097767668645029 0.8468501251793157 15651251
0.2719980605736892 0.22436287033541458 0.6772624011562884 1711905
0.17171868590238265 0.1037937516724583 0.6646970912021419 3026731
-0.04983245831163413 0.012931053783656887 0.25601704680216186 1053718
0.13524217733686916 -0.18561776111908945 0.2580556530048419 1251096
-0.05604799825647511 -0.21673959034740964 0.274943191842262 790545
-0.04363792878728373 -0.20570359002240313 0.16116335468561171 527373
0.15668866220461292 -0.07395753200835142 0.922200490005797 10253408
0.16772084437113766 0.13088883898678771 -0.12969686346665976 395271
0.16662119679306603 0.11873268149411276 -0.02616152093070201 264201
0.30390341775330426 0.022046663376242837 0.2979402366916697 2434603
0.09155705459160934 -0.28867175074507534 0.602104621263829 2237991
0.15813098592191804 -0.2053898793192961 0.42307949446852566 1514010
0.015017359153322696 -0.28598160947051254 0.6330943625613974 3883073
0.0985524953171465 -0.25228046727184705 0.45503564649027584 1448475
0.10563569060473071 -0.2739297597595609 0.6688968251770657 5790297
0.22397687618323964 0.0024050711824927795 0.3029911606800042 3027255
0.19027550581273772 0.09360503669132525 0.4869482970697614 658702
-0.10301958156049734 -0.14252964499400123 0.33928536854252767 1447958
0.1567426264543345 -0.1686191635577754 0.85368529163992 2039580
0.1632244373380966 0.06245177110880529 0.2463990091672188 724752
0.16353108056473165 0.05490728209882434 0.189942267077982 856340
0.17685541822986722 -0.2364373066183969 0.6059483799595751 2040612
0.046613385193360724 -0.2354813342919102 0.6363399546608457 4211781
0.17121428463231197 -0.23181928315278277 0.5779410974246082 2172198
0.15901548866905124 -0.22636073888184827 0.5478810253829263 2435371
0.2336526318287529 -0.04836872298335093 0.2300460772886861 2631981
-0.002714060057113221 0.059299009167068206 0.3029474904161007 1185305
0.15959260268138564 -0.12993079978636812 0.8943128044250948 1118476
0.1637430534388455 -0.2008183613178982 0.39517698579165117 1645854
0.20208934419482244 0.11604596265878886 0.5125777410192074 724752
-0.15127400798379603 -0.25088432634600233 0.6507329316205175 6646124
0.014703909357546507 -0.24125896579386064 0.3616073332103662 1251096
0.0452851650412629 -0.17205476826118393 0.665921527520837 2434341
0.2717133705139348 0.19635760597842644 0.6770598979880151 3225916
0.04251244402228299 -0.19917015848960973 0.6589112852686989 5921886
0.19438613217426776 0.23196359256227517 0.7121273361540159 3357510
0.05113947052237294 -0.21313038511257099 0.6487076586749951 4146244
0.13934482698516265 -0.2213500651913669 0.44723947709617584 1514268
0.13414805601393281 -0.23366249080641355 0.4745649341316742 1580061
0.012540948345083625 -0.15039731425118275 0.8808973027218108 10253401
0.1661074794638212 -0.1623228585352321 0.1715791137775251 3682876
-0.012581892801691974 -0.14252790397900372 0.8783144570752512 5126183
0.1683847202072148 -0.17007890958788185 0.12451478765415303 789519
-0.05196737856197636 -0.21559150402883787 0.3700026898689368 856339
0.1777422205215911 0.04981451164992379 0.29067867736758757 922133
0.19567552101009006 0.15762139082812743 0.8152949467984401 13287857
0.07553165771248271 -0.22497332165269301 0.12740662569437577 1184276
-0.1518053505738373 -0.24748965350928587 0.6367621039033724 9343117
0.053800563295632375 -0.21630392146525246 0.27497509396118947 1514268
-0.07830137905857465 0.07191414763394577 0.04397005653063202 2764335
0.22771880183912102 0.19005069711607736 0.797349039388703 3880767
0.2600582112326619 0.15827529275116214 0.6123589547258339 2040612
0.019011392608733746 -0.22951214290868727 0.11399589330444337 592908
0.24990790603787333 -0.043198745212742695 0.30986476345904324 1449504
0.18177410116984133 -0.011746318023479141 0.35547341836805235 132615
0.16539797428702674 0.008521938468008416 0.36772557223511826 329737
0.17687554716967463 0.016781887385220795 0.3989271235199523 395017
0.19128976164441097 0.07474035820983627 0.48810156225613 789775
0.206134602683055 0.09946720487678506 0.5167371221080201 724495
0.2549515211337717 0.14052926127087817 0.5910573972986439 1645854
0.26202633549810433 0.16850387129369748 0.634103216554132 2830387
0.26314913800369405 0.1850801918720859 0.6389578898461978 2435629
0.2560802249746847 0.21735416978800481 0.6931587636632852 3159610
