# .PCD v0.7 - Point Cloud Data file format
VERSION 0.7
FIELDS x y z rgb
SIZE 4 4 4 4
TYPE F F F U
COUNT 1 1 1 1
WIDTH 1126
HEIGHT 1
VIEWPOINT 0 0 0 1 0 0 0
POINTS 1126
DATA ascii
3.2876043 3.0614345 0.81287527 4288452759
1.81846 -0.7177785 0.65638077 4282401859
-0.71067691 1.5807933 1.8752767 4281611314
1.4039258 2.6202691 0.63980395 4284963160
2.0229471 -0.72127104 0.73196352 4279046418
3.3168488 3.0949664 0.82334238 4287601352
3.2060051 2.9060831 1.4806417 4284637018
2.9055905 3.0834603 1.8237548 4293518809
1.0738554 2.8359761 1.9240017 4287269775
2.3067012 0.86500388 1.6263444 4282531916
1.110028 0.44294962 1.3622236 4280164383
-0.45596743 1.0162621 1.4941155 4285089597
2.6711776 2.9888637 1.1753752 4278584838
-1.6434332 1.4896207 1.0328956 4279441176
0.06766142 -1.0084047 1.5134913 4287794821
1.1780291 -0.0026674331 1.3136296 4290295992
0.22300693 2.365263 1.8451723 4279702800
1.4770598 -0.78441483 0.6096431 4278190848
-0.50778729 1.2623893 0.4752582 4279505681
-0.57599711 -0.78164244 1.534903 4282006074
2.2809801 1.3550211 0.42359379 4289652728
1.6408981 -0.67470342 0.34518075 4278977537
-0.52612436 1.5319499 0.75048268 4294478138
4.0648246 -1.3847378 0.85634279 4292465346
1.4870149 2.5511217 1.600588 4282137399
-1.763343 2.4404628 1.1831217 4286019445
1.7447504 -0.81292802 1.405645 4282005557
2.2643375 -1.1626199 1.3137202 4282135601
-0.54954737 -1.9537402 1.5706136 4294242794
-1.3714963 2.2073355 0.86495477 4293717228
0.3890985 2.4466352 1.6329234 4281285180
-0.44902921 1.461663 1.6891478 4278980877
3.7528653 -1.1546125 0.51711333 4280164129
1.1776922 1.3462718 0.91446793 4285031778
-1.3457462 2.1961253 1.2555897 4294967295
0.74919587 -1.7550827 1.297197 4294967293
0.7737745 1.2252209 1.7131436 4283256141
3.9234054 -1.4349403 0.86398429 4292333247
1.4359999 -1.0259829 1.1664524 4283255880
4.7133512 -1.2648833 0.044542372 4289503118
1.4059415 -0.71309137 0.4178319 4283253562
0.27428705 2.357455 1.9332275 4283911224
1.3245775 -0.15539584 0.91984159 4289770161
3.6256099 3.1412277 1.8948298 4292400328
-0.36778471 0.45371473 1.327559 4279637267
0.76715219 1.2005639 1.6598742 4279966743
5.7029152 0.36582428 1.0880502 4289169763
-0.11030418 2.6149249 1.9698424 4282532156
2.4861581 2.647604 0.64906847 4290743883
3.7382007 0.98326826 0.23181725 4290560445
-0.46929383 0.31520599 0.45759377 4279703321
-1.4195105 1.8770001 0.84221405 4288717473
2.145319 3.0051999 1.72487 4293715670
-1.3985288 2.2643368 1.3637111 4294967295
-0.7761361 0.87646335 1.7340369 4290464330
2.8502953 2.8922989 0.87501323 4294769389
0.98322374 2.4323123 1.1756661 4285423963
-0.39294904 -0.013352015 1.7016492 4294440690
1.2334852 -1.1809187 1.2863338 4285493883
1.1108959 2.8664544 1.9780056 4293980392
0.81440008 -1.0555732 1.2725157 4285625200
1.8855067 -0.7329827 0.39072099 4279834392
1.6772892 1.3572683 1.0472872 4279703062
1.539662 -0.77099836 0.72017586 4279176716
3.3659461 3.1807506 1.3894002 4293123022
0.13521595 -0.9687646 1.4810668 4280426781
0.83570862 2.5283985 0.65221 4285296753
2.2237475 0.58511287 0.96666896 4280164129
0.75280422 2.4459944 1.5452495 4283199351
1.3178002 -0.12102409 1.2002864 4291217094
3.4518719 -0.8293696 0.41232905 4282597431
-0.031476922 2.4037495 0.74277955 4288905316
3.0440769 2.9171014 0.84966391 4294967295
5.2864213 2.3886559 0.77007598 4279309074
2.0363107 0.77358007 1.5817249 4291340194
2.3361437 2.5019431 0.74015141 4292001697
-0.6843285 1.1554482 1.7748476 4294967295
1.0346608 1.0860487 1.6655265 4282796111
1.0970106 2.5132706 1.2442222 4292006349
-0.33278853 2.3764935 0.77974093 4281550939
-0.61016351 1.5067842 1.0430793 4279373327
3.7924423 0.84310222 1.0318167 4289769899
2.3445425 3.0234432 1.7669547 4292795346
1.0347763 2.6825085 1.8467886 4283716440
1.6537927 2.667933 1.8273745 4279571731
-0.228046 2.4119823 1.0698627 4294964918
0.81483108 0.67558247 1.685781 4280953384
0.57181007 -0.85392243 0.39391264 4282795328
-0.13345434 2.4256413 0.80913228 4279241228
1.7980491 0.58183426 0.41936126 4284177756
-0.082575075 2.5034404 1.8999922 4281940279
-0.38662007 2.3121388 1.8932524 4280953382
-0.35705516 -0.36008945 1.5660892 4281742902
1.9532591 2.6546137 1.7571033 4279703317
0.54527366 -0.93675858 1.2285175 4290756014
2.9648674 2.0654542 0.6967591 4282931815
2.1554694 0.9754467 1.5792216 4279111181
-0.58693075 2.6866438 1.8450429 4292991440
0.66479802 -0.99582523 1.5213119 4280558371
-0.37127775 0.17919116 1.4967062 4284572260
-0.5056138 -0.77592593 1.5703248 4282598209
1.1972842 2.5259972 1.2923486 4294243310
-0.44773468 -0.10299175 1.5906757 4279900696
1.8230444 1.3488005 1.2896115 4279769112
3.6893303 -0.85548705 0.41258395 4294967295
0.8548277 -0.79119754 0.81560773 4282203453
0.68517172 0.82366836 1.7152184 4293388263
-0.4125495 0.42396364 0.53547591 4278387459
0.74269438 -1.7270396 1.0415974 4293781984
3.5749359 -0.92511952 0.40168822 4289440938
3.4732616 -1.3262841 0.83146578 4287862160
3.5583427 2.6749301 0.76956105 4294901502
1.8635094 0.7809515 1.5814815 4285690223
2.2757916 1.2437873 1.4354857 4292138453
-1.1988904 2.3797419 0.55594552 4292598999
-0.66776448 -1.8609998 0.73095781 4279504901
4.5834594 2.2935083 0.39875758 4281683036
3.2208915 2.9590905 0.79272681 4282203461
5.5951204 0.96494573 0.25423121 4288254594
1.2027712 2.6742272 1.7731793 4280953127
0.69081908 0.55453312 1.0362161 4280427040
-0.32220972 0.13653171 1.4090878 4279046416
1.0144932 2.4260218 1.6349158 4286887870
-0.41488382 0.90543956 1.7412183 4281281577
-0.48786494 0.4392558 1.5084947 4280491806
-0.87618107 -1.9020554 0.93329567 4292004801
1.5651712 0.79594648 1.5853293 4292136642
-0.48736104 1.4005997 1.5255159 4284821041
-0.74012649 2.6828151 1.6489589 4293188562
-0.38340873 -0.8880502 1.4846628 4287731078
-1.1900885 -0.91493583 0.73154193 4283254850
0.53463674 -0.99668372 1.2569691 4285949282
1.8840288 1.3763112 1.1765639 4279110930
-0.42296153 -0.8529458 1.5194811 4294376189
1.0444789 2.8630266 2.0665262 4294638062
-0.36872754 0.80212134 1.446008 4279111180
4.0684814 2.8438606 0.77989274 4293059288
-0.47464332 2.6847916 1.9466603 4293386445
5.4038572 0.77947831 0.22398207 4279111441
2.2815993 1.4508028 1.3242437 4282795842
-0.3600415 1.0277997 1.6622128 4281739293
0.74731308 1.1169405 1.6651189 4280098077
2.6416152 2.7914412 0.76628542 4294901502
-0.31385842 2.3032961 1.7052916 4281682774
2.3450449 0.61753708 1.2357768 4280230952
4.1638236 -1.0772454 0.44464105 4294962923
1.8551054 0.77258676 1.5655645 4285032034
3.3334203 1.8456624 0.92173684 4289836202
2.4167719 0.62582898 1.4766316 4281480246
1.2483298 -1.1736312 1.1847358 4284507503
2.7572041 2.660816 0.8288995 4294901502
-0.47388116 1.1440396 1.3619353 4293517000
0.56846637 1.1849805 1.4496804 4281282092
-1.3553463 2.4757774 1.4339144 4294967295
-0.42273191 -0.72458482 1.4558864 4278657059
3.5848751 2.7967746 0.75410831 4293651437
1.1634705 -0.80811447 1.1258357 4279638037
1.8074487 0.51126963 1.2696025 4279045387
2.310313 0.62383527 1.3067576 4278980109
5.5024405 2.0725656 0.91446865 4292399299
0.62567055 2.6154447 1.8932376 4283322186
4.5796938 3.0939705 0.8359648 4283456089
2.3939748 -0.72620463 0.8693949 4281744703
-1.5465627 0.60751921 0.74553782 4282136884
-1.7446427 1.1882412 1.0458004 4289240206
3.9735422 3.2407122 1.3472345 4291215537
-1.1656551 2.6639955 1.4846821 4292662218
0.26459187 2.3575103 1.8989465 4279506191
0.12626359 2.3944578 1.4006238 4294966763
-0.36682895 0.42027476 1.4507334 4281150763
-1.4636565 1.9539137 0.96415627 4292138196
-0.36804307 1.1529658 1.6216758 4281411619
-1.4195411 2.1744556 1.0733875 4294111986
0.25550297 2.7740891 2.171876 4293846999
2.569221 -1.0495073 1.4251382 4280165410
2.1452651 -0.74638468 1.3551255 4278782473
0.54714638 2.4030302 0.91894627 4288913299
-0.44636184 0.83088702 0.95893586 4286015301
0.18401122 2.5457687 1.9488044 4292926674
3.0707936 1.7998867 0.89108771 4284047199
-0.33328104 -0.41511962 0.71550763 4281808954
2.3787763 1.4374037 1.3483869 4289706935
1.0855353 0.16582379 1.5480585 4280822052
-1.3245271 2.5251324 1.3429209 4294901502
-0.47639903 1.0311046 1.1133748 4279503360
-0.42365769 1.2256289 0.5161038 4283712042
4.1736794 3.2775645 1.1644783 4290359715
-0.5887723 0.86308807 0.79904729 4290287442
-0.34420061 -0.71783817 1.5557299 4288782753
-0.67521316 -0.38529059 1.5857164 4286677377
3.7032359 0.86677551 0.66810971 4294110171
3.105495 2.9912305 0.84648633 4286018934
0.52927947 -1.153277 1.4267762 4282269244
1.0066377 2.5462024 0.59455812 4289045925
2.3360405 3.0144241 1.8950771 4293716190
-0.24303636 -0.9747417 1.3062177 4279702289
-0.2863116 -0.052685216 1.5998185 4284423714
0.07689929 2.7748556 2.0677786 4294505707
2.3067074 1.3953161 1.6355194 4280427042
1.9365286 -0.72647524 0.96235526 4281749075
0.74634725 2.8386996 2.0293088 4288585115
3.1561761 2.9728682 0.84293664 4293912536
5.6302814 0.74867612 0.37239337 4290951592
2.2919445 1.029608 1.0452019 4281551695
3.9199581 1.0476397 0.82008207 4280032543
3.8476641 -1.4841517 0.97534692 4292794057
-1.1840953 2.6251156 1.9655322 4293583320
0.80589253 2.4570317 1.8031621 4280493342
2.6078882 -1.0753095 1.5445114 4281743161
-0.55373812 1.3358569 1.0077097 4278848775
1.4117035 -0.034911025 0.94845903 4287992978
-1.344413 2.6254921 1.8841075 4292991183
-0.390618 0.51043534 0.61487424 4284373056
2.2144594 1.0270321 1.5661345 4279769628
2.4127741 -0.6530872 0.99544674 4282205486
2.8972113 3.100379 1.7032735 4294110430
1.3656561 -0.72693342 0.629632 4281544492
2.1431887 2.8537443 0.84041655 4278848012
1.3550063 -0.7412076 0.30982897 4282333234
3.0801885 -1.5357673 0.89845121 4291478451
-0.64480579 -1.0461291 0.82542276 4280951060
-0.35769185 0.9947837 1.7053354 4288838010
1.0892006 1.2290782 1.5970664 4280954426
5.5282388 0.62296051 0.31964856 4280494123
3.0949085 -1.0527719 0.71969545 4279966489
1.8911026 1.2348515 1.6746496 4280888624
1.4237454 -0.73383051 0.58591712 4279373580
3.0052397 3.0708523 1.9646773 4292400328
0.13620184 2.4584327 0.89806485 4282198564
-1.4127879 1.9791471 1.0529869 4292730333
-0.30693221 2.4109454 1.944541 4279899922
-1.6424433 2.0527647 1.2828413 4288980130
3.5786715 2.925988 0.80473602 4284440415
2.1583881 0.63968712 0.58021915 4279506969
1.005736 -1.1522571 1.1960374 4287203978
0.8648451 2.4758058 1.6304438 4281286464
3.5656853 0.011232727 0.75240868 4294967295
1.3052397 -0.082392685 1.2967895 4292598747
-0.50405121 -0.57510877 1.1646312 4279111692
2.1657085 -0.88108468 0.98463607 4278257415
3.2291784 2.9143775 1.4682665 4286413427
2.2001362 -0.71735275 0.9410308 4281359201
2.84202 3.0188062 1.2083368 4282795341
0.011402875 -0.92150682 1.0825999 4282072126
4.1904387 1.1146325 0.44380194 4282796619
-0.52401179 0.42208686 0.88209713 4279504135
-0.58797055 0.90957505 1.7039268 4281150763
1.267573 2.7472847 1.8222598 4282071088
1.9759244 -1.1556425 1.3918608 4282006074
2.4733708 2.9466715 0.65866381 4281411870
2.7342243 3.0483527 1.9360802 4292597710
3.489583 -0.3457655 0.55265915 4288654189
-0.54067999 0.59492666 0.48698711 4278716678
2.5143573 3.1118977 1.117579 4289373334
3.9554353 1.0190493 0.62699842 4282927178
0.62515199 0.61607397 1.6330097 4288585626
3.5385947 0.99059105 0.77851903 4286282357
-1.211623 0.66717225 1.1153129 4279243020
3.9076374 1.9177529 1.0220664 4294967295
1.5331856 1.0930861 1.6255742 4285427311
-0.075917274 2.7532384 2.1329117 4294439144
1.9553312 2.5616143 1.7220302 4278848010
2.0301626 -0.72387463 0.94438082 4280959053
-0.082837068 -1.7991682 0.87745523 4292596938
1.5871665 0.4495303 1.4508572 4279835418
3.4647181 0.014716662 0.74278092 4294967295
2.2472587 2.8619149 0.80717218 4290618512
4.0742664 -0.79125559 0.40645456 4294967036
2.7746377 3.0607188 1.8639979 4293650396
4.7552829 3.2433176 0.74881661 4280690214
0.65373087 0.86738139 1.6868311 4281018667
1.1650807 0.86567718 1.6464256 4293716445
1.3245047 -0.096037447 1.2655914 4292203989
0.22369991 -0.89173377 0.78404683 4282336306
1.0057399 -0.8478173 1.2404932 4286611846
-0.79133242 -0.51209921 1.5598993 4289774538
-1.9250011 1.57569 1.0327995 4288057992
-1.1097015 2.6684875 0.85914582 4292729820
3.2831662 1.8358809 0.978082 4294967295
0.24448824 2.7874646 2.0541551 4294373861
3.5959797 1.0855197 0.77942973 4294967295
1.8326446 -0.65418702 0.43217453 4280559404
4.9102674 2.7810121 0.65581441 4294835961
3.4404187 2.4601514 0.38526475 4282141010
-0.37630409 0.22154325 1.620057 4279900698
2.3743546 2.9171636 0.54301101 4287325754
0.92556077 0.40523058 1.6140896 4278650629
0.87538999 -1.1652663 1.1914034 4286743428
2.1160216 1.4114697 1.5535619 4287330384
1.2237756 -1.6661873 0.84599197 4293649628
2.0649776 2.9444857 2.1231854 4292860110
1.9238009 2.6759706 0.88249701 4281348396
0.71409374 0.90336227 1.676937 4293651435
1.0556151 0.9656508 1.690379 4282534751
0.99439067 1.3308417 1.5122347 4278255873
-1.3416283 -1.8901688 0.5576548 4290162852
1.2660922 -0.10374058 0.99503517 4289111718
0.75301057 1.260517 1.4918115 4281413937
3.8670385 3.1954165 1.7564476 4285624683
-0.5520488 -0.04354649 0.4370468 4290810742
1.9692008 2.5909629 1.7373184 4279242768
2.2176077 -0.76591462 1.4012496 4283124814
-0.29230699 -0.76230192 1.2573327 4280692272
1.2339178 0.20735121 1.5331596 4287718736
2.935221 -1.4347546 0.3678335 4284177241
3.7356882 3.1910186 1.5731606 4292070846
2.1985056 0.59170985 1.5436879 4280493613
0.20721439 -1.837603 1.4942913 4294967292
0.62703419 2.4351225 1.0127416 4282995028
-0.87722099 2.6864529 1.5050097 4292530887
-0.3965283 -0.46968701 1.4767635 4284980136
4.2231345 -0.78374904 0.35673782 4294770687
3.8934791 -1.4209447 0.6227538 4294701795
5.1977463 2.705107 0.36277992 4286010674
3.0970571 -1.2703581 0.72911668 4282071869
1.8536663 2.6014092 1.5242671 4283716944
1.5041198 -0.76139605 0.47874576 4279244047
1.7153869 2.5572958 1.3166623 4279835675
0.22496542 -1.0427318 1.4416746 4286676599
0.6630646 0.54265833 0.44617864 4281611316
-0.71606261 0.29245678 0.49462149 4283845706
1.2971303 -0.18713547 0.79564601 4285822581
0.82716894 2.6202638 2.0391538 4289571758
-0.3790637 -0.17553307 1.5281674 4283996837
2.3472703 0.61559343 1.2066888 4280099110
0.32372752 -1.0820284 1.424561 4283519311
3.8356953 2.6933637 0.26693606 4281545779
3.9281342 1.1412027 0.81105655 4283059021
5.4127111 1.4738833 0.68371058 4286272814
1.8620989 1.4611157 1.6194386 4280757296
-0.56059659 0.8350383 1.7389344 4281084972
4.2657681 -1.3629774 0.73392332 4292662212
0.68588102 0.78724074 1.6442429 4292731098
5.6476932 0.71686542 0.42854971 4291214766
1.9232438 1.3587103 1.6583722 4280427044
1.4558469 2.8991616 2.0941689 4292925903
3.3265672 2.8697784 0.8245666 4282400056
3.0337975 2.4420576 0.51529264 4282273888
-0.27669123 -0.73419446 0.68024933 4283906613
3.8045309 2.7734497 0.79636061 4294769916
5.2246866 2.5251021 0.66260087 4279374606
4.7345538 2.601954 0.47888297 4281683810
2.5622976 -1.5081769 0.25375217 4287268475
-0.55886251 1.4273837 1.1668156 4279309325
-0.57348263 1.6374292 1.0213503 4279308050
0.65566766 -0.85294247 0.89293104 4281217070
3.3490057 2.0015056 0.75633067 4284444277
4.4672093 2.183183 0.34910032 4281350203
1.2596834 -0.07423804 1.2525396 4290559162
2.451201 -0.82463294 1.3405917 4281742641
1.433148 2.5135124 1.8110843 4279111182
5.7242203 -0.31225091 0.32266393 4284172593
-1.5545901 0.097905777 0.5955264 4280361247
1.9046735 1.5038122 0.69454557 4279637785
2.1455631 2.575459 1.7215979 4279308307
-0.42992273 -0.14172821 1.0406011 4280094730
2.1007965 1.1405399 1.7209703 4281412906
4.3535361 3.3197327 0.80086535 4282660670
1.4101027 2.8989739 1.7727284 4281808947
-0.46900973 0.34809372 1.5543733 4289703855
1.9439805 -1.0347373 1.4031699 4294901502
2.2487197 -0.74170333 1.0867846 4281414966
1.5959435 -0.70576185 0.33853382 4280951587
2.0565906 0.47525495 1.5154653 4280559399
-0.59344 0.94232482 1.693678 4281150763
0.99674344 1.2620734 1.1955065 4282006838
-0.41153148 1.06168 0.54902303 4285087288
1.4692506 -1.1683106 1.1894603 4287269773
-0.4445104 0.98446906 1.5267946 4281150765
-0.4303202 1.4077787 0.65895599 4280361249
-0.38471907 1.1082582 1.4824665 4280689954
0.95201677 0.369405 1.4510574 4279242768
0.60055876 -0.89256787 0.56695116 4285688160
3.2864959 2.1770687 0.45075181 4280825927
3.1349869 3.0780413 2.0641053 4292334535
1.3210832 -1.6467601 0.73964775 4287729285
1.3332127 2.5656278 0.8894617 4282267437
1.1805358 0.45407531 1.4517345 4279707969
2.2837315 1.0547186 1.6325133 4281157993
3.5595582 1.8582445 0.84633648 4294572010
2.1751864 0.50239336 1.4267135 4280759368
1.7170429 2.686909 1.8044392 4280229916
2.3744218 -0.7594977 1.3528918 4281940794
3.0075262 -1.5157006 0.52138132 4288189577
4.2640138 0.19916652 0.54985511 4284637532
-0.3917248 0.088499874 0.48988137 4281807414
5.589159 1.4450731 1.2670565 4292202435
3.8798773 -1.1568726 0.35914201 4283059021
0.76955771 -1.6584307 0.80084413 4286873717
-1.4412442 1.8894141 1.2486722 4294769916
1.2646233 0.46169311 1.2711436 4280755746
3.9186358 3.1869314 0.7177369 4283848278
-0.015206548 2.4039626 0.66858208 4280752408
1.6368542 -0.93451661 1.3888618 4279638293
1.5065835 -0.72496265 0.88540417 4283586394
-0.58489752 0.002927247 0.41975358 4280886566
-0.23689802 -1.0696172 0.61403584 4280754716
-0.35559839 -0.66348094 1.5495681 4291348420
1.7151839 0.57482499 0.3361333 4281151275
2.6847157 3.0567021 1.8848302 4294176739
2.486095 -0.79775941 1.3642049 4281282350
1.1987748 2.465137 1.8083955 4279703319
3.0056407 2.1265655 0.7490508 4279046677
3.8664141 -1.4266611 0.65430993 4291806645
-0.084130138 -1.3239554 1.4402854 4285755498
2.0357287 0.49546149 1.5578387 4293585606
3.5160499 3.1480412 1.7159891 4292399812
1.4693593 2.5204933 1.4355199 4281611829
1.884343 0.48390558 1.5553319 4281676319
1.0260611 -1.7173613 1.1144806 4294373864
4.6632919 2.3601725 0.37681636 4281354073
2.6342714 2.8037059 0.43383107 4283185963
0.5509572 2.3695931 1.5712023 4282866019
4.6178308 2.7122149 0.52561474 4281814624
3.4219072 -0.0079242624 0.79027176 4294967295
2.0755363 1.3752002 1.6055614 4283780679
-0.55351537 -0.083567344 1.1601294 4278387970
4.3923001 -1.3776678 0.81616306 4292332993
-1.2818708 2.4842722 0.80986953 4293454056
4.4579406 2.9707236 0.81227738 4284769893
3.2422078 2.4716139 0.47272301 4281615443
1.1748675 -0.86178297 1.2663497 4281288563
3.775738 3.2335832 1.1151742 4282861375
1.8225943 2.6443169 0.94760871 4279637778
1.6468167 -0.69959736 0.30850014 4283385922
0.042862788 -1.3179442 1.4164453 4285294945
-0.53155613 0.94119424 1.7804468 4283979864
-0.44551927 1.2561141 1.2453355 4280097050
3.2391956 3.1014626 1.9178531 4292466121
-0.70083576 -1.6664819 0.4841544 4290689711
-0.12636706 2.6216319 1.9788709 4282663996
5.5230365 2.1308291 0.82625645 4292530885
1.0453858 0.68380105 1.6757683 4294704381
3.961611 2.8555911 0.63573265 4281611318
-0.32973382 0.39491802 1.6746955 4280953388
5.4730706 0.81528598 0.35215449 4279442206
0.99381495 -1.195374 1.1833595 4287993753
-0.59114164 -1.1030766 0.98096693 4282331943
0.84123182 -0.96913356 1.2395637 4281945446
1.8762821 -0.73124343 0.94771165 4279906363
1.4423782 -0.85143912 0.33512741 4286610796
-0.3253684 -0.4639616 0.76418859 4285626231
-0.50956762 -0.35763404 1.3954235 4278255875
3.7806785 2.9675114 0.69615495 4280558117
0.72506016 0.74711806 1.3917022 4283059534
-0.57307059 0.68215114 0.81781095 4288581478
-0.42668536 1.2718233 1.3142473 4281677107
-0.45706168 1.6545306 0.90036029 4282332467
-0.38864383 -0.38401946 1.5999397 4281677622
2.9145706 3.1131763 1.5457643 4293781465
2.9016433 2.1981418 0.66231906 4279311392
-0.58489704 0.23046185 1.6169604 4279440147
0.56661195 1.323109 0.47836983 4280823604
-0.46976432 1.3732576 1.61686 4279964432
5.4814863 1.4155087 0.64944172 4278322179
-0.1719768 2.3771424 1.5670238 4280164648
-0.6822598 0.59904718 0.51983184 4279702539
-0.57711375 1.2568913 1.1990602 4279242768
-1.2778931 2.6294422 1.8059951 4293122769
2.0865841 1.144949 1.666297 4280032282
-0.64043325 -1.8492814 0.77402604 4291544244
2.3737521 3.0256848 1.8641305 4294374118
-0.44778809 1.3352865 0.90867907 4283443968
3.2145813 -0.95518547 0.41379896 4294901759
-0.30903354 -0.34394524 1.3266349 4279901729
3.0741084 2.8838711 1.5544081 4283653751
-1.0662274 -1.9156839 1.1267166 4292531145
0.90617734 1.046391 1.6645937 4280690215
0.91287756 2.4454031 1.5052835 4287535267
-0.41632989 0.73684108 1.5387467 4280160269
3.2741082 1.0448663 0.7841447 4285824125
1.822822 1.208845 1.6765381 4279571987
0.95641792 2.7373896 1.8520997 4283454298
4.1443954 0.97231972 0.33614403 4287203721
0.79305029 2.4153559 1.6244702 4286035664
0.89581382 2.4412394 1.8456513 4284505947
1.4941534 2.9236021 1.8764502 4294638060
1.8649405 -1.0628499 1.4231491 4294901246
-0.57894665 0.81541413 0.45218232 4278453252
1.297133 2.4997151 0.55977672 4280428330
1.0961534 -1.6887407 0.89474988 4293650144
1.8338959 -0.79205322 1.0987676 4278520333
-0.37272012 -0.56603408 1.4649999 4279982949
-0.38452968 0.46528253 1.4482303 4279308818
0.98838574 1.3257159 0.90502393 4285953654
3.5625086 -0.54094881 0.20961189 4287337827
0.37215233 2.6046505 1.8651464 4290492066
-1.0944356 2.6293015 1.9510393 4293978080
5.4931641 -0.34392422 0.73185062 4285421368
5.6347804 1.044569 1.2246178 4293190879
1.4572319 -1.0338699 1.1822752 4282269244
2.9416442 2.3031921 0.602229 4281153857
0.58516312 2.6546979 1.8848405 4281149994
0.76404065 2.4821434 0.90843379 4289703857
1.9540536 2.9820666 1.7266488 4290558381
4.8661518 -1.2824478 0.034493752 4290621858
0.68709928 0.59378076 0.48371676 4280891443
3.3632324 2.7583318 0.76044536 4291414230
4.1062818 -1.3071636 0.635831 4284110653
1.0447688 1.2836599 1.1150899 4291866243
0.21155934 -0.90835828 1.093083 4281349173
5.6152802 1.163942 1.0646427 4291938748
2.76543 2.5448499 0.84772646 4294901758
-0.40814498 -0.73440975 0.69580704 4279703832
-0.3752104 0.8018598 1.6492279 4290662479
0.37309593 2.4577057 1.8916261 4288771649
-0.66570902 -0.37381786 1.651873 4287730063
3.0033269 2.0309417 0.84582978 4294770680
-0.37678006 0.43923756 0.7862944 4281874991
2.0102699 -0.83149093 1.249752 4278454541
2.2569084 1.4406958 0.82438171 4280496446
1.2664641 0.47236177 0.60494876 4278979596
3.9455533 2.9215772 0.82581234 4279112213
1.3344707 -1.7061187 1.1664922 4294506483
3.0935316 2.0870914 0.79021907 4279440660
-0.39346838 2.5656297 1.9378337 4290070593
1.3365325 -0.1457288 0.96869075 4289112231
1.1318322 2.4725037 0.6934033 4280492835
3.3142915 3.1372542 1.7147318 4292334535
0.19666807 2.5939181 2.0426433 4280822052
4.689774 -1.291407 0.12492853 4291411893
1.1440111 0.45580989 1.3846773 4280035392
3.0698473 -1.4677454 0.69727898 4285755749
0.29752782 2.4843767 2.0468967 4294825630
0.053289838 2.7122998 1.9215707 4281480238
3.3260002 1.9992026 0.72066867 4287140499
-1.114028 -1.9350315 0.91557121 4291675836
1.3339989 0.93453348 1.58525 4281150252
0.74964261 -0.83752149 0.35415673 4281676333
3.8181877 -0.81531554 0.3208057 4282466363
2.2846677 0.84333682 1.1351662 4288312174
-0.45405424 0.67350996 0.91206747 4280295444
-0.64063835 1.5180004 0.61480594 4278387200
0.26572648 2.3668075 1.5063348 4283518025
3.3329978 -0.8900584 0.78536302 4280427042
1.3757067 2.5043702 1.4924409 4280888095
1.0838697 0.59492391 1.643695 4281282349
2.1118138 2.5159767 0.43366188 4284511875
1.6071464 2.9523447 1.8810242 4294571497
3.680599 1.1545689 0.6810587 4289111967
-0.40109196 -0.37461817 0.55056083 4279505938
3.7979865 0.18122381 0.47662112 4287533199
0.7362209 0.76156086 1.6696669 4293980400
1.1882044 -1.7379844 1.3737772 4294967295
1.3145614 0.45547068 1.5925105 4282530871
-0.33480525 -0.6457904 1.1288567 4280362280
1.5044823 1.2671378 1.7385966 4293580740
1.7322881 2.6050704 0.81353706 4286018159
4.7208853 2.3282032 0.34985471 4281880417
-0.47169861 -0.31814635 0.90417957 4280163870
1.955238 2.954325 1.9277674 4294507247
5.2635956 2.4318652 0.64706039 4294769916
-0.40130186 0.23424602 1.2448494 4289289811
3.3951268 3.1184185 1.9050233 4292466121
0.97346246 -0.84669006 1.0963023 4280229919
4.4192295 -1.290458 0.48239201 4280228887
-0.91872531 -1.9194468 1.1053475 4292795087
2.2141438 1.4346316 1.050485 4283124551
0.26503024 -0.94593871 1.3152111 4280295199
3.1575365 2.0578349 0.82577032 4294704121
0.94331878 2.6467147 1.9166677 4287468702
2.1858068 2.7156312 0.77770877 4278848010
4.633863 2.6082616 0.44703603 4282275945
-1.7319689 1.6151292 1.0489777 4288848797
4.0938411 1.2252897 0.83781278 4283585106
5.6644406 0.8156637 1.0332658 4291807673
4.1418672 2.0549545 0.46508929 4286677116
-1.1926786 0.67571276 1.1897899 4282137909
3.3853188 1.0535682 0.84388995 4294240212
-1.8058555 2.6266708 1.3642185 4288123016
0.59284937 -1.7813282 1.364939 4294967295
3.7903159 1.9098943 1.0018208 4294636515
2.657038 2.9838796 0.96155405 4283910714
0.21405914 -0.94507647 1.0747211 4280229664
3.5879226 1.1332933 0.46137226 4289443254
-1.2270216 2.5331392 0.71554863 4292993505
1.3828888 1.3201944 1.1030983 4283786864
1.2632308 -0.84437847 0.94891554 4278717964
3.0832014 3.1063986 1.7455683 4292860878
2.3784523 -0.85040575 1.0539275 4278192394
3.1510563 1.7954031 0.49371123 4283261567
3.1661596 0.82491982 0.78816915 4294835709
1.3870271 2.9112451 1.8565072 4293387477
4.0765362 1.9745587 0.8990829 4294966782
3.1859882 2.1293318 0.6349414 4279703319
-0.35178986 0.48472077 1.0838952 4282196505
3.0551288 1.0442623 0.60738236 4289052093
4.0396876 2.1214507 0.29731578 4282929748
3.2449229 0.99386823 0.82626289 4284374622
1.1787202 2.4759343 0.9155069 4291152582
3.7586956 0.17541742 0.62374538 4288717473
2.8049815 2.4238353 0.66053081 4281349175
3.7933967 -0.64483494 0.22302711 4280755745
3.203407 3.1239815 1.7373413 4293386964
0.53545791 1.1657741 1.6573585 4278716931
1.1671914 2.5153346 1.924211 4281477153
4.6534643 3.370542 0.92272234 4289900194
3.7557828 3.2029784 1.4464593 4290754989
0.78637356 -0.817424 0.96568054 4279441176
3.2025528 1.0842326 0.85889637 4293783531
1.6242369 -1.1577322 1.3636742 4282466112
5.6805243 0.49303773 0.69351447 4292136381
5.2809825 -0.38684019 0.67994201 4286341443
4.2567344 0.18713492 0.40596175 4287401098
2.1749842 -0.6699242 0.5930602 4279507228
1.9937506 2.6350605 1.7367913 4278979596
1.2347386 2.7443924 1.8161423 4282071090
-0.34509867 0.47397825 0.5184716 4280759330
5.4945555 1.8063453 0.75817037 4291073637
2.205231 2.9441864 1.7855629 4280493087
0.066030622 2.3679814 1.6746814 4282545028
3.7040079 -1.4620508 0.69157624 4292597442
2.3616838 0.89272928 1.2203666 4279705898
1.679652 -0.82290459 1.1929804 4278849037
-0.48511052 -1.796561 0.80565846 4280952095
2.4581194 2.7039325 0.538957 4285680938
-0.36514103 1.0542674 1.6024352 4285685842
2.3017008 1.3552008 0.39283156 4294245631
1.7946941 2.6242664 0.67395645 4280755743
3.4061995 -1.0213434 0.44730446 4289704106
1.2686386 0.16431877 1.4176809 4291927144
2.003758 1.4210196 1.31745 4279243795
-0.44380891 2.32042 1.7486126 4291216565
-1.2847122 -1.1758776 0.57674658 4282928467
-0.61358124 0.61090398 0.50014484 4278190336
-0.38160846 0.35599717 0.55453515 4280032025
-1.4643675 2.6329257 1.4829869 4289307807
-0.45191583 0.24552602 0.94382775 4291671143
3.1661391 0.87381047 0.85009897 4294636261
0.92777491 2.5075159 1.5644294 4283190609
-1.1417832 2.7127244 1.6453353 4292399046
1.8577504 2.5602553 1.3883656 4280295195
1.5243096 2.9072151 2.1150863 4292728524
0.24780793 2.344918 1.8877794 4279572246
-0.85465634 -1.9631999 1.3566084 4293518812
2.1559484 -0.92323083 1.3384153 4281808176
4.3779736 -1.4549165 0.86784256 4292662471
-0.33096588 0.96681058 1.745407 4281741871
0.94085503 -0.83863801 1.0813494 4280098588
5.6821456 0.39924067 0.53352761 4288248661
0.26489386 2.3626873 1.9788275 4290289532
4.1767015 1.1856697 0.81131816 4283256141
0.3144486 -0.99563062 1.2822595 4279505427
-1.0301483 2.5951996 0.60656905 4292335826
0.35470924 2.7982152 2.0871542 4294834670
4.2015357 1.1712329 0.28767353 4284904048
-0.46135411 1.4200358 0.52126759 4279966491
1.8830485 -0.79095697 1.3172078 4279575080
1.2944722 2.6783268 1.7525624 4279505938
1.9454333 2.7276108 0.9605962 4281607454
0.71143782 2.6090684 2.0242465 4282532418
3.1549559 3.1581774 1.3756247 4290426022
2.4975624 -1.5182086 0.95009309 4287005562
-0.68054527 1.5220999 1.7931569 4281545521
0.2933439 -1.8684056 1.5960058 4294967295
-0.17422476 -0.89573938 0.92756057 4283124553
3.0836349 -1.2368922 0.51279855 4289836205
1.9856817 -1.1055944 1.3667735 4279243030
2.5154943 -1.0094382 0.45174766 4279640106
-0.44232059 0.30686438 0.42842722 4282406450
0.6745972 1.0969223 1.6858243 4288848546
5.3974938 1.9391632 0.65341324 4286342216
1.1399983 2.639658 1.8548263 4281216809
3.5923791 1.7954961 0.88839185 4280888369
4.0841227 -1.3953142 0.68217254 4292662725
0.49749383 -1.696645 0.81938547 4292991183
2.2044785 0.61066133 0.78461307 4282337097
-0.39358133 1.2231171 1.7672822 4285229930
5.4764719 2.3178742 0.97079903 4292136127
1.6677309 -0.94580841 1.3927712 4281545005
0.64942068 1.2596149 1.1199169 4282729795
3.1867585 -0.87483084 0.40298605 4281939499
0.83498096 0.8189193 1.6536617 4293454054
3.0370092 2.6930842 0.80019826 4281020216
-1.3819771 2.0159514 0.74189973 4291151299
-0.38765144 0.19478853 1.704615 4285032551
5.3956237 1.7366562 0.7461533 4287062326
1.1851285 2.4451416 1.1835077 4287401062
1.3031982 0.55292368 0.56855983 4279374354
2.2385111 -0.69400078 1.1054409 4280163869
2.0185666 2.8664412 1.8033721 4280229661
-0.36800578 1.1323571 0.94623035 4282203704
0.14172424 -0.84428203 0.40598375 4279506192
0.33492911 2.8038695 2.0446777 4294505189
3.2071543 0.88413048 0.79365695 4294967295
-1.3371507 2.1914461 0.6345787 4292927712
1.0469402 -1.7164582 1.1534542 4294703601
2.0364387 1.3963587 1.5533931 4279637526
-0.33432704 0.38616136 0.4887808 4279376145
-0.57479513 1.3342271 1.767895 4294967295
2.3327615 0.93203843 1.3597816 4279442978
1.3926654 0.51564151 1.1610734 4281412393
1.1361327 2.5560617 1.783308 4280755745
3.6222835 -0.10971276 0.40809911 4294967295
3.7368014 0.87892342 0.47273406 4285559660
0.53705478 -0.81143379 0.60186344 4280822313
3.9846132 2.0144594 0.81664681 4279900700
0.8046537 -1.7492207 1.1810917 4294835699
-0.49393022 1.5461214 1.3391236 4279703580
-1.3510032 2.1448734 0.77545285 4293651435
5.6733308 0.58573627 0.80209631 4292135868
2.2655807 1.2848133 1.5875173 4289902519
5.6208797 0.83645928 0.47536421 4291412658
3.6025901 3.1291623 1.9460194 4292268742
1.4255695 1.045638 1.6440443 4292336350
1.5417417 -0.74035472 0.57242399 4279835418
1.9647142 2.6772897 1.8479152 4279637524
-0.0054492517 -1.7649217 0.83346719 4292268228
2.3636076 -0.68965554 0.1905029 4291941069
3.6387341 2.7937493 0.77475494 4282664263
1.795978 1.4504061 1.5901617 4279900439
1.0949484 2.473026 1.5321468 4281217585
3.4533241 1.123854 0.84872675 4294901230
3.7895782 1.2372699 0.75379908 4288847509
1.6138872 2.6069405 1.7827246 4279111182
3.9576445 0.10458259 0.69780147 4294967295
4.1774831 -1.1315542 0.44891825 4280953384
4.605196 2.9328275 0.73512018 4291941069
3.8931963 -1.4038705 0.75784969 4293583825
-0.7595126 0.9796049 1.7525761 4281742653
2.2481446 1.2448395 0.5966419 4294639615
0.14566924 2.4090586 1.687597 4281811526
3.7789264 -1.0939795 0.35180891 4282334261
0.29399472 2.801064 2.0108929 4294242016
-1.2361461 2.1679924 0.44219294 4292072916
-0.29637128 2.5546963 1.9077239 4285229672
1.0809847 2.5262339 1.7703768 4281017891
-0.86132145 2.3275506 0.49756417 4290287978
1.5235419 0.8041333 1.5808604 4293254868
-1.60734 1.9102967 1.2858782 4286216824
2.6820037 2.5773726 0.76868016 4294901759
0.28653002 -0.77702117 0.45575336 4280821792
2.4355559 3.1226144 1.0337263 4289768609
0.34666902 -0.90203291 0.71910602 4283714370
1.4928162 0.51305616 0.76498848 4279833868
-0.55057567 1.5131192 1.2614623 4278387970
2.3354957 1.2150549 0.48169884 4284577918
3.893688 -1.4682945 0.91858608 4292727751
-0.18445395 -0.99525601 1.1471043 4282466623
-0.26109549 -0.76806366 0.44510543 4284817688
2.9081888 2.187407 0.66947573 4283920000
1.0955118 0.58770365 0.42271709 4279243281
3.9382839 0.072553761 0.74271095 4294901502
-0.37259346 1.1614043 1.5646374 4283713346
3.8160863 -0.91882694 0.41115114 4290494407
-0.10715361 2.375643 1.7046504 4280039520
-0.3474226 -0.66602135 0.39334372 4278585346
-0.66445047 -0.0010156246 0.38768408 4279308559
2.8644757 -1.531121 0.7980383 4290032553
1.1498903 2.5194016 1.7702096 4281412646
4.2721934 0.20508532 0.40953761 4283387719
-0.44788727 0.094725765 1.2021394 4294696630
3.4271376 2.8751619 0.76625329 4294901502
1.3561337 0.69774407 1.6313895 4285888370
-1.2125641 2.6405735 1.613541 4293123284
-0.42134798 0.52541733 1.5319766 4278913805
3.7953477 3.1667228 1.6733148 4292136640
-0.73126352 0.57877564 1.7490367 4280163868
1.2342415 2.6233113 1.7739807 4281479468
0.80207491 -0.94176334 1.3681055 4288320411
-0.47623715 0.61950034 1.690021 4284440928
1.2152575 1.287079 1.4079336 4281151016
-0.64892298 1.6909491 1.8571345 4281808947
5.5530968 2.0233483 1.0445063 4292662471
-0.49197268 1.4272732 0.54567766 4279834905
-0.10412084 -0.86264288 0.42811388 4281083942
2.4096129 -0.69892418 1.1190863 4283914584
-0.46347541 0.93354654 1.7583402 4281150765
-0.060966186 2.398494 1.8888642 4282269246
1.4756356 2.5627799 1.8441129 4279176975
0.47605586 2.3900554 1.5984743 4283133819
0.70745236 0.75487804 1.3833075 4283388503
-1.6516585 2.017889 1.3260753 4291282882
2.3529763 2.6856585 0.47465292 4289563753
0.40403539 2.8026843 2.0635054 4294571496
1.5049748 -1.2439649 1.1627102 4282927435
4.3351979 2.6491158 0.68789214 4281348144
2.4025311 -0.75601643 1.4040028 4279505940
0.65988809 2.4630227 1.8633318 4284374360
1.2798622 -0.82318461 1.186136 4288585627
1.1475848 0.6162377 1.6161426 4283058762
0.73377526 2.4463828 0.91128123 4285624687
2.2830153 0.69261461 0.42372885 4291471518
1.8646555 2.9425869 2.0379958 4294374633
2.1921864 -0.7380262 1.4034668 4284770411
0.97717118 -0.76534539 0.42797357 4283453779
0.71767354 0.40417394 1.6229745 4280558374
0.61364627 -1.794107 1.4554801 4294967295
-0.57734406 -0.084995702 1.6229668 4282466625
4.0135236 -1.1558954 0.3330234 4289564806
1.6769342 2.6831968 1.7952335 4279900697
3.2697365 2.8266208 0.73992354 4280427301
3.062073 2.0679462 0.73494607 4281685107
-0.75428057 2.4389782 0.512155 4287919182
3.9748218 -0.8172881 0.42296222 4294967293
1.9697927 1.1988333 1.6985002 4279966230
-0.89560503 2.6909702 1.9956386 4293320661
-0.50901079 1.483264 0.55221891 4279571994
-0.4684391 1.7644982 1.418381 4280229141
1.6458519 1.3269033 1.3739665 4281216810
3.7018633 2.7038684 0.44227421 4280556821
4.1248741 3.0907559 0.71766782 4289901234
-0.75222433 1.7426444 0.41241288 4278848012
0.52923799 -1.7979617 1.3577632 4294967295
-0.71430171 0.93317044 1.7550604 4282400059
2.8251534 3.0728986 1.866227 4293518810
1.3511211 1.350042 0.94467181 4281414189
1.2425544 1.2084215 1.6755733 4282203451
-0.28477383 -0.91652024 0.80551815 4279900436
3.710108 0.97631466 0.27987927 4289508268
1.0333779 2.4734726 1.7693961 4280295454
-1.9129233 1.6057556 1.0648004 4288649358
1.0136502 -0.89595765 1.3898957 4283459972
3.3006623 1.1034901 0.90522951 4293190358
-0.84532118 -1.9330213 1.2540821 4293386454
0.92469186 -1.2362435 1.1269622 4291151042
-0.4423283 1.4048781 1.4359143 4281149735
1.1543844 -1.0763929 1.1715943 4286019706
0.99623507 2.8269587 1.9941847 4287006093
0.49518809 -0.86528891 0.66811162 4279900947
0.9959442 0.73555332 1.6747938 4293783020
1.5472825 -0.7007339 0.30234903 4290722355
-0.6030764 -0.26649365 1.601283 4287137928
-0.45309162 1.4017097 1.7877477 4281611316
-0.30402976 -0.44617495 0.9481706 4280295454
-0.37938792 -1.8688689 1.2288539 4294110949
0.67487401 0.62516999 1.6539172 4285164137
-0.61406225 -0.26122978 1.6492864 4289572267
2.6716719 -1.5286342 0.3945711 4290096546
1.7659262 -0.77609116 1.3679891 4281549910
-0.51049417 -0.30016544 0.57195592 4291473834
1.7063649 0.44468403 1.5759223 4283387723
0.20339125 2.6549582 1.9444724 4294900463
2.3358064 0.63131183 0.88933772 4280953135
-0.53734016 1.1024228 1.6946539 4283257170
1.4981644 2.8306653 1.747004 4280822051
2.2941613 1.485585 1.6076126 4283453785
-0.34600601 -0.92436075 1.5582862 4279046418
1.9147154 2.9537721 1.8175967 4286479985
-1.8465462 1.3618692 1.1268433 4289963677
-0.59270859 0.77202821 0.56197625 4278453511
2.1910837 3.0182827 1.5269878 4282532416
1.5212662 1.3040998 1.1113778 4279769371
4.4565163 2.9874127 0.7819224 4281413937
0.86039418 -0.71543676 0.38726407 4279177234
-0.32747382 0.21607383 1.0537883 4281085481
0.98324364 1.243103 1.1313426 4279769625
3.3985527 -1.0155717 0.4671101 4289572520
0.88781643 1.1299073 1.7164429 4286085753
-0.32010168 -0.30330321 0.48780894 4285625441
1.3194355 1.2861836 1.5225073 4278849289
-0.54405111 -0.77807289 0.43749741 4285030485
0.005631675 2.7605863 2.1052325 4294570728
-0.71289092 2.3324404 0.56711078 4290879854
-1.8872797 1.5401919 1.0714959 4284636763
1.1645221 0.12482142 1.4721694 4281019177
-0.37465996 -0.32717955 1.5852041 4281546036
4.1843014 -0.84559834 0.37385565 4294967295
3.3953395 2.3085053 0.54557717 4283325032
1.0137587 2.4505646 1.5055327 4290362042
2.7180042 -1.5119917 0.35085905 4289571229
-0.35260919 -0.067404747 1.2071884 4282990911
1.1464107 0.45533121 1.6258923 4285230187
1.4960281 1.1562855 1.6586558 4280689955
-0.38522226 2.3522167 1.3444155 4281747255
3.7526805 3.1584272 1.8085326 4292465605
0.75647599 -0.75538921 0.47108266 4286213215
0.47654715 -0.80246186 0.45823899 4281019177
4.8076329 2.375967 0.32498074 4281156694
3.9564717 2.7897875 0.7059598 4294769138
3.946718 1.965674 0.959225 4294967295
-0.41392142 1.5828661 0.89288127 4284373842
3.0574131 -0.027129564 0.48803321 4282803542
3.1599543 2.0687702 0.54800701 4282672000
1.5071142 0.7698313 1.6188154 4286214508
0.6877321 -1.0012546 0.373337 4279769112
1.1152691 -1.7740698 1.575317 4294967295
0.96408927 2.4661839 1.8309386 4279440658
2.3541577 0.91485751 1.0467246 4279310363
-1.0328639 2.6999943 1.8997743 4292991183
1.1290958 1.27628 1.1816607 4281085736
1.6229857 1.3357846 1.6379026 4281216812
1.6273273 -1.1481317 1.3997531 4279900439
-0.31386083 -0.39739898 1.4785632 4279181608
0.63163429 2.476974 1.8204932 4280558880
0.024725011 -0.95399362 1.4560865 4289364085
-0.66490626 -0.34071457 1.6078516 4288848544
1.1721883 2.4573102 1.2688289 4283126877
3.0653555 3.1028221 1.7346753 4292334791
1.408682 -0.043764107 0.81995422 4288520608
2.5668466 2.7124727 0.44666883 4283780678
3.718456 3.1880219 0.8354724 4287269542
0.64339584 2.4831841 1.8896929 4283848019
4.2524695 -1.3730989 0.67726922 4292925645
4.2141318 -0.88615793 0.35362092 4294967038
2.5745676 3.1074848 1.2726583 4294833614
-0.92026496 2.6785667 0.39311263 4286208312
-0.51626801 -0.64819634 0.39306569 4279110923
3.9044201 3.1863372 1.7640849 4292399554
0.75583011 -0.81621408 1.0466125 4280690727
3.1881404 1.8642156 0.96600211 4294900724
1.1262751 2.7177801 1.8778464 4280887593
2.4258459 2.6861875 0.49653539 4290024010
1.0267273 2.5848806 2.0074949 4285556848
4.0944948 3.0916226 0.81145149 4291480517
0.67683971 1.220849 1.4947594 4280229665
2.19245 1.4677117 1.6079608 4283782485
1.2576535 2.5760007 1.7582527 4281282089
1.0471423 2.6616464 1.8958337 4287073691
3.0763493 0.98812109 0.43439555 4285363058
1.4244156 -0.76911694 0.53457963 4279374612
3.8058271 2.9703102 1.4832563 4284307278
2.9700987 3.1643224 1.0605658 4282794812
4.6733861 2.4535668 0.34616542 4281617761
0.097420923 2.3733389 1.874 4292855714
3.616997 1.8269322 0.72593987 4286348925
1.9490675 1.3953519 0.78785682 4278322697
3.5948212 0.87577027 1.2246915 4283781709
-0.20873185 2.4128666 1.7070676 4281414717
-1.5254633 2.1240053 1.37609 4294375158
-0.81600356 1.2749745 1.793143 4294901500
2.1053813 -0.98505515 1.3151734 4281939505
2.0720513 2.6190062 1.7286779 4279440147
5.6605768 0.42072797 0.6876415 4288185451
-0.40986219 1.3185207 1.3080143 4280032536
-1.2553825 0.68473792 1.1753418 4283191118
0.41288462 2.4130683 1.893867 4280229658
2.1245246 2.5605695 0.42673859 4278518784
1.0797087 2.768054 1.8081115 4281019430
-0.44569319 0.87913495 1.4811578 4278979596
-0.08054506 -1.8007841 0.95444483 4292860112
2.8351674 -1.4751927 0.75092614 4279703057
-0.66575295 -1.8895299 0.90609545 4292136387
1.4952402 2.5653672 1.7931387 4279176975
1.4955047 -0.72761106 0.87287951 4283453776
0.69249427 0.49315107 1.6380606 4284177495
3.29568 -0.79712945 0.87774205 4281413937
-1.2852606 2.5737214 1.2915289 4294572537
0.56842041 2.4186745 1.8956234 4282122242
4.8428717 2.309113 0.37069771 4281551452
0.74295294 -0.88336462 1.2133811 4294769650
4.5441098 -1.3476853 0.47819263 4291148971
4.515286 -1.3755473 0.54404277 4291346350
1.4342706 0.76821119 1.5998969 4291478461
-1.2566406 2.1237938 0.54423136 4291678158
-0.49098626 -0.42668802 1.5033094 4278520074
-1.3325827 2.6377499 1.5551641 4291478717
-0.51658714 1.5969892 0.8100552 4280097050
-1.0325141 2.7080061 1.1775572 4291808194
-0.70074189 -0.61489028 1.5747185 4289051590
-0.31243175 -0.47143176 0.87733483 4279636499
3.6767416 0.10894292 0.34172681 4285428339
-1.3589017 -1.7060485 0.85083187 4290887092
-0.03634705 2.3563015 1.7574482 4281286997
-1.2247766 0.91068327 1.150077 4291217094
0.21980882 2.6718917 1.9613311 4294835182
3.5600991 3.2093158 1.3093542 4290097057
0.6932866 2.8821847 1.8975667 4287728786
5.4979415 2.22141 0.82639247 4292662473
3.5155823 3.1974432 1.14171 4279900437
-0.46826139 0.14322796 1.6109242 4279505940
0.17778571 -1.8297729 1.3338599 4294901751
-0.51361197 0.95579731 1.7459092 4284572001
3.5483646 3.006819 0.81442958 4294440171
-0.48466507 0.31003377 0.98901582 4279176973
-0.28931209 -0.89932913 0.80353707 4280032023
1.557585 1.3271414 1.376001 4282335031
4.6244273 2.4165139 0.31759721 4281287765
-1.6423218 1.462279 1.1008365 4280229659
2.0098522 2.8570516 1.7204081 4280690212
3.6923454 3.1307435 2.02672 4292202433
-0.48329657 1.6162821 0.9222042 4279569928
2.1399808 -0.71766037 1.0980889 4280888106
-0.45705152 0.87642074 0.88280058 4291669885
5.3703141 0.8940388 0.092440046 4279836964
1.4445862 0.36189985 0.84115696 4281540885
3.7957695 2.902993 0.77348256 4291414732
0.87501937 2.4724133 1.841082 4286413427
1.4492345 -0.76538289 0.30119342 4284703839
-0.48301181 -0.81427276 1.5454472 4282729540
4.8053627 2.5262642 0.55045485 4281880933
-0.36710203 0.063658327 0.81513786 4291275404
3.7458386 -1.4356177 0.61207825 4292859850
3.7052622 0.90430588 0.34544191 4285954935
3.1576381 0.055100888 0.68804985 4285887861
-1.4082347 2.3090403 0.98450845 4293980400
2.5943346 3.0247049 1.1421274 4279835164
2.2445271 2.884938 0.85112 4290680652
-0.70624119 -0.36700636 1.604279 4289506473
1.0815967 -0.80235255 0.49040568 4279767824
4.5641365 2.4644597 0.3697724 4281814622
2.3618436 -0.70900542 1.1636004 4281943882
2.2390597 1.4225664 1.1006948 4291216835
2.1313992 -0.77280962 1.3319266 4278322179
-1.4146972 2.0339894 1.3139293 4294967295
3.8963363 0.94542044 1.2309455 4282729797
0.74564749 0.41617194 0.93669677 4283651158
3.0454006 2.9396214 0.83351845 4291611852
-0.41531354 1.1882999 0.98276109 4292989858
1.1113731 0.76102048 1.5755405 4283386438
2.1536686 3.0078506 1.8252175 4293715673
0.99423671 -0.76563954 0.56634492 4278650373
-0.48963135 0.82869285 0.7361601 4292527781
1.6178571 0.78398901 1.6053104 4285755495
0.92104006 -0.75405389 0.39947456 4281281838
-0.48534167 1.1016662 1.3296115 4283914581
1.0536636 0.46887767 0.96045101 4279045389
2.189693 -1.1010425 1.3052481 4280756259
1.2035606 0.80566728 1.6366084 4290296244
0.67395091 -1.7662418 1.2252353 4294967291
0.026010893 2.4190156 0.93571037 4280756508
1.9099706 2.5152521 1.8211675 4279637526
2.159961 -1.1175346 1.2991509 4281545261
-0.59979159 0.72336274 0.81262815 4278518784
3.7294509 2.6812317 0.37969238 4284571215
2.9815056 3.166307 1.1776191 4282795582
2.2949221 1.4743209 1.042545 4288529633
4.1339631 -0.93322647 0.35535997 4294769916
2.0258787 0.57579958 1.5840219 4278980887
1.109621 1.3542612 0.42577642 4278848008
1.8502935 0.71481168 0.37891078 4279308561
0.91391885 1.1242335 1.6419967 4281874481
-0.34173539 0.66497374 1.4157847 4281610026
3.5466979 1.0353098 0.87431401 4288781717
1.0262607 2.7740774 1.8878751 4284901492
3.1159589 1.0917628 0.42047492 4282996819
0.68306011 1.1250221 1.7309729 4282071867
2.2537549 1.1988343 1.4598935 4294442239
1.5051841 -0.735838 0.89272112 4283191896
-0.27040082 -0.735174 1.4541956 4289704882
-0.40200052 1.5791372 1.8255347 4286874756
0.72347653 -0.87645108 1.4067949 4283769125
-0.67619359 -1.1087787 0.44919863 4279899922
2.1145916 0.9684425 0.55904812 4281160041
2.8239498 3.0497003 1.994242 4292531915
4.609241 2.4680102 0.39893264 4281881446
2.2124219 2.6996305 0.64687723 4286736465
0.78555226 0.70488787 1.6952736 4286545789
0.99287891 1.0557089 1.6355033 4280032793
2.2025397 2.9038966 0.84030193 4283184670
-0.21852639 -0.79631865 1.4431429 4279703317
1.1345837 -1.7038801 1.0944772 4294374121
-0.38729841 0.43988401 1.6687056 4280624421
3.3947256 -1.0615114 0.88928759 4280953899
0.38605317 2.79407 2.0014715 4280098333
-0.42271051 0.073469527 1.6438477 4289835439
2.125082 2.660763 1.0836914 4279769364
-1.8424047 1.7826027 1.1666586 4288518292
5.6073341 1.6132619 1.3416531 4292596932
1.2412549 -1.0834439 1.1383864 4286611584
1.7980454 -0.70966494 0.33476615 4279570704
1.6929684 -0.86608362 1.4191189 4281808433
3.4635718 2.7515793 0.72591889 4281150763
3.4751687 -1.3835311 0.82513773 4285493104
2.3154993 -0.62139064 0.26770523 4285947727
1.6548898 -0.77287757 0.71069217 4279374095
-1.1947734 2.5225449 0.60561609 4286479997
3.237766 2.5391731 0.41762903 4282997348
3.9148479 2.6761792 0.46911007 4281545518
1.2602931 2.4638615 1.5393832 4287993229
-0.30641368 -0.68236578 0.47146147 4280951844
1.2442933 2.7355232 1.7990482 4281939503
1.0864463 2.5058746 1.8877276 4281347108
2.2171242 -0.674034 0.55934989 4281941823
2.1989198 3.0218515 1.6338739 4284835425
4.2366943 2.9308672 0.81012779 4287532425
2.3445606 0.64684993 1.526829 4294613633
1.4852746 -0.75199628 0.30413306 4286339662
0.76634842 0.58669323 1.6844026 4281808695
1.7825918 2.6253641 0.96470863 4283519813
2.0033882 1.426191 1.2709363 4280032545
4.7038059 3.3239489 0.73693085 4289304727
2.8541279 3.0572722 1.9533768 4292531915
2.2954135 -0.97414005 1.3079318 4294901759
0.60700613 -0.8653785 1.1019719 4281216299
1.8355155 1.3463352 1.6594424 4280756008
2.3569977 2.9119852 0.68764466 4289100096
3.1766422 -0.96529615 0.81312132 4279900957
0.98172957 0.63200748 1.6669756 4290888117
-0.37113515 0.69411838 1.1307161 4280493599
-0.40755174 -0.13067071 1.2543868 4291910481
1.2662481 2.6244314 1.7755195 4281479468
3.4154358 1.8562768 0.95550728 4294835184
0.95581865 -1.2129275 1.1940646 4287466895
1.1392702 2.5646822 1.7661504 4280953125
0.74723816 1.2656076 1.672491 4280624421
1.194557 1.3145611 0.82420117 4280164383
-1.1119529 -1.9410743 0.94477856 4291873215
5.5560207 1.6764565 1.1164908 4292530885
1.2358831 -1.0273179 1.1938614 4281873973
-1.3439695 2.6274626 1.757593 4292859597
3.3269048 2.8666461 0.75621766 4294967295
2.9606638 2.2358935 0.70562953 4281486694
3.0064371 3.1272333 1.4858487 4290755503
5.5764179 1.3234155 0.95633769 4292136641
1.3746057 -0.96838927 1.2175466 4284244843
-0.62422425 1.417024 0.87947023 4279374093
3.7171586 -0.93417883 0.40088972 4294836222
-0.73706359 -1.9478916 1.4415932 4293781984
1.1856241 0.72389847 1.64001 4286282870
-0.41456783 -0.53425515 1.0646002 4278915080
3.5031993 3.12956 1.8648022 4292466375
4.0136056 1.9663502 0.88607669 4282006850
-1.7443216 2.6184423 1.4222565 4289177763
3.1016347 -0.9945122 0.44609112 4287401602
-1.3308262 2.51127 0.90811956 4293322470
3.0116289 1.8962502 0.55548859 4291820542
-0.43298903 2.3061488 1.6589799 4281480243
0.78382063 -0.76611739 0.68918329 4280427555
-0.42548403 -0.61238462 0.86404175 4281937961
-1.4865893 1.8750571 0.9315083 4290887870
2.046217 1.2455012 1.6370342 4279637525
-0.72444814 -0.48676893 1.6003283 4288457135
2.1341119 -0.65414572 0.41382584 4279440657
0.8188557 -1.7596444 1.3412591 4294967295
-0.74580514 0.76366067 1.6928415 4281940279
3.3644495 2.1846268 0.4579024 4281220686
0.81770182 0.58681685 1.627915 4286085753
-0.56532151 -0.24769217 1.6307255 4289440934
-0.52212936 1.6984956 1.8434527 4282795590
-0.36466524 -0.14434107 0.57099336 4281148707
1.4259886 0.45396394 1.6054037 4282465590
-0.11349097 2.3182807 1.5268136 4294045667
0.45632032 2.739192 1.9386506 4279440399
0.75449783 2.6344817 2.0357513 4288651167
1.2586026 1.0666981 1.6406586 4282005043
